# .PCD v0.7 - Point Cloud Data file format
VERSION 0.7
FIELDS x y z intensity
SIZE 4 4 4 4
TYPE F F F F
COUNT 1 1 1 1
WIDTH 1121
HEIGHT 1
VIEWPOINT 0 0 0 1 0 0 0
POINTS 1121
DATA ascii
-11.217426 -15.028061 3.214659 0.926718
-11.249468 -15.031269 3.217576 0.9266367
-11.270278 -15.019443 3.2172818 0.92662585
-11.291108 -15.007617 3.2169826 0.92661488
-11.311938 -14.995776 3.2166848 0.92660385
-11.332773 -14.98394 3.216382 0.92659265
-11.412964 -15.050361 3.2328901 0.92621213
-11.647148 -15.318871 3.2928622 0.92487752
-11.652705 -15.286006 3.2880924 0.92496353
-11.658247 -15.253207 3.2833247 0.92504936
-11.663784 -15.220483 3.2785702 0.92513484
-11.669301 -15.187856 3.2738271 0.92521995
-11.674805 -15.155283 3.2690897 0.92530483
-11.680307 -15.122787 3.2643631 0.92538941
-11.685791 -15.090376 3.2596493 0.92547369
-11.691264 -15.058046 3.2549422 0.92555761
-11.696723 -15.025757 3.2502408 0.92564136
-11.702172 -14.993569 3.2455544 0.92572469
-11.707607 -14.96145 3.2408755 0.92580777
-11.713032 -14.929399 3.2362032 0.92589056
-11.718451 -14.897446 3.2315433 0.925973
-11.733677 -14.877993 3.2295949 0.92599559
-11.728627 -14.83291 3.2220798 0.9261409
-11.723594 -14.788027 3.2145889 0.92628551
-12.179936 -15.323764 3.3333962 0.92364639
-12.20105 -15.310478 3.3328547 0.92363673
-12.222173 -15.297187 3.3323128 0.9236269
-12.243296 -15.283896 3.3317671 0.92361701
-13.291011 -16.548775 3.610054 0.91748375
-13.301518 -16.51895 3.6060994 0.91754645
-13.312012 -16.48917 3.6021438 0.91760892
-13.577573 -16.774584 3.6670918 0.91616285
-13.586226 -16.741865 3.6625295 0.91623777
-13.408975 -16.480742 3.6079664 0.91740817
-13.449848 -16.488247 3.6121755 0.9172911
-13.465508 -16.4648 3.6096017 0.91732258
-13.688037 -16.693701 3.6623819 0.9161402
-13.783066 -16.766226 3.6809139 0.9157086
-13.781635 -16.721226 3.6736538 0.91584176
-13.780127 -16.67627 3.6663852 0.91597497
-13.778627 -16.631479 3.6591432 0.91610754
-13.777119 -16.586817 3.6519265 0.91623962
-13.77563 -16.542305 3.6447263 0.91637111
-13.907934 -16.658207 3.6728885 0.91572618
-13.852973 -16.549692 3.6515756 0.91616732
-13.798594 -16.442314 3.6304824 0.91660392
-13.627851 -16.197113 3.5789003 0.91771185
-13.628813 -16.15662 3.5725148 0.91782558
-13.62977 -16.11624 3.5661452 0.91793895
-13.630722 -16.075972 3.5597916 0.91805184
-13.63168 -16.035826 3.553462 0.91816431
-14.035542 -16.468525 3.6519716 0.9159655
-14.043032 -16.435049 3.647176 0.91604286
-14.050512 -16.401615 3.6423819 0.91611999
-14.057979 -16.368267 3.6375973 0.91619682
-13.810039 -16.038359 3.5668592 0.91772932
-14.072871 -16.301733 3.6280513 0.91634971
-14.080297 -16.268564 3.6232913 0.91642576
-14.087709 -16.235439 3.6185348 0.91650158
-14.095112 -16.202387 3.6137886 0.91657716
-14.102505 -16.169399 3.609045 0.91665238
-14.109892 -16.13645 3.6043124 0.91672748
-14.11725 -16.103575 3.5995827 0.91680223
-14.124604 -16.070751 3.5948641 0.91687679
-14.131943 -16.038027 3.5901523 0.916951
-14.139272 -16.005318 3.5854483 0.91702503
-14.146586 -15.97268 3.580749 0.91709876
-14.153892 -15.940092 3.5760574 0.91717231
-14.161186 -15.907573 3.5713723 0.91724557
-14.168467 -15.875112 3.5666933 0.91731852
-14.175732 -15.842705 3.5620222 0.9173913
-14.182988 -15.810366 3.5573604 0.91746378
-14.190239 -15.778066 3.5526967 0.91753602
-14.197475 -15.74583 3.5480466 0.91760802
-14.204692 -15.713652 3.5434053 0.91767979
-14.211909 -15.681528 3.538765 0.91775131
-14.591352 -16.059185 3.6266584 0.91576439
-14.660102 -16.093716 3.6371372 0.91549867
-14.729316 -16.128481 3.647692 0.91523111
-14.799008 -16.163481 3.6583126 0.91496164
-14.869164 -16.198721 3.6690042 0.91469032
-14.93979 -16.23419 3.6797652 0.91441715
-15.010898 -16.269907 3.6905978 0.91414207
-15.079736 -16.30287 3.7008231 0.91388017
-15.097749 -16.280766 3.698555 0.91389591
-15.092685 -16.233868 3.6906521 0.91403699
-15.068726 -16.166807 3.678149 0.91428041
-15.044911 -16.100151 3.6657169 0.91452235
-15.021235 -16.033901 3.6533632 0.91476274
-14.997681 -15.967993 3.6410708 0.91500181
-14.974262 -15.902461 3.6288431 0.91523945
-14.950981 -15.837343 3.6166878 0.91547555
-15.24166 -16.104164 3.6803865 0.91401672
-15.259633 -16.082113 3.6781087 0.91403121
-15.277593 -16.060068 3.6758296 0.91404563
-15.295542 -16.038036 3.6735506 0.91405988
-15.313505 -16.01601 3.6712735 0.91407394
-15.33145 -15.993975 3.6689918 0.91408795
-15.344087 -15.966401 3.6654384 0.91413027
-15.343188 -15.924858 3.658669 0.91424459
-15.342299 -15.883418 3.6519156 0.91435844
-15.403232 -15.905893 3.659858 0.91414255
-15.421147 -15.883901 3.657577 0.9141559
-15.558408 -15.984477 3.6835353 0.9135353
-15.579834 -15.965771 3.6820314 0.91353059
-15.601279 -15.947055 3.6805208 0.9135257
-15.622725 -15.928345 3.6790102 0.91352069
-15.644189 -15.909618 3.6774971 0.91351551
-15.984907 -16.214756 3.7508969 0.91182768
-16.008188 -16.197031 3.7496736 0.91181493
-16.031479 -16.179306 3.7484462 0.91180205
-16.05477 -16.161572 3.7472146 0.91178906
-16.078085 -16.143824 3.7459829 0.91177589
-16.101397 -16.126068 3.7447505 0.91176265
-16.124722 -16.108315 3.7435145 0.91174918
-16.148046 -16.090551 3.7422781 0.91173565
-16.171391 -16.072763 3.7410336 0.911722
-16.19475 -16.054979 3.7397902 0.91170818
-16.704039 -16.5177 3.8505611 0.9091723
-16.683384 -16.455244 3.8389816 0.90938932
-17.097181 -16.820404 3.9272346 0.90736163
-16.506968 -16.198399 3.7849545 0.9105199
-16.529463 -16.179121 3.7833967 0.91051155
-16.622753 -16.228979 3.7980201 0.91013795
-16.678144 -16.241533 3.8039327 0.90996051
-16.733759 -16.254131 3.8098707 0.90978229
-16.789564 -16.266771 3.8158271 0.90960336
-16.845673 -16.279491 3.8218093 0.90942329
-16.872662 -16.263979 3.8211746 0.90939265
-16.813154 -16.165268 3.8009787 0.90980428
-16.740356 -16.054209 3.7778444 0.91028279
-16.668344 -15.944341 3.7549562 0.91075635
-16.597137 -15.835703 3.7323263 0.91122466
-16.526655 -15.728173 3.7099245 0.91168833
-16.456963 -15.62184 3.6877687 0.91214693
-16.931688 -16.031435 3.7874691 0.90983593
-16.940083 -15.998388 3.7826686 0.9098984
-16.948467 -15.965405 3.7778792 0.90996057
-16.956841 -15.932431 3.7730935 0.91002268
-16.9652 -15.899536 3.7683132 0.91008443
-16.973549 -15.866655 3.7635379 0.91014606
-16.98189 -15.833852 3.7587721 0.91020733
-16.990225 -15.801059 3.7540035 0.91026855
-16.998535 -15.768325 3.7492435 0.91032946
-17.006849 -15.735635 3.7444882 0.9103902
-17.01515 -15.702983 3.7397401 0.9104507
-17.023441 -15.670366 3.734993 0.91051102
-17.031719 -15.637822 3.7302547 0.91057104
-17.039995 -15.605297 3.7255173 0.91063088
-17.048246 -15.572807 3.7207844 0.91069061
-17.056503 -15.540376 3.7160604 0.91075003
-17.257769 -15.683398 3.7533193 0.90984726
-17.248276 -15.634521 3.744678 0.90999556
-17.238804 -15.5858 3.7360654 0.91014332
-17.22938 -15.537241 3.7274814 0.91029036
-17.219975 -15.488848 3.7189212 0.91043693
-17.210619 -15.44063 3.7103939 0.91058272
-17.415487 -15.584233 3.7479892 0.90966815
-17.418823 -15.547124 3.7421482 0.90975142
-17.421324 -15.509311 3.7361336 0.90983856
-17.423813 -15.471567 3.7301309 0.90992546
-17.426304 -15.43393 3.7241421 0.91001195
-17.428783 -15.396342 3.7181571 0.91009825
-17.431269 -15.358823 3.7121859 0.9101842
-18.128477 -15.931918 3.853915 0.90686601
-18.118412 -15.882007 3.8450503 0.90701616
-18.108364 -15.832177 3.836199 0.90716588
-18.098364 -15.782568 3.827383 0.90731484
-18.088392 -15.733105 3.8185916 0.90746325
-18.078451 -15.683818 3.8098311 0.90761107
-18.06856 -15.634683 3.8010941 0.90775824
-18.058681 -15.585698 3.792388 0.90790486
-18.048847 -15.53686 3.7837045 0.90805089
-18.039038 -15.488203 3.7750516 0.90819627
-18.029266 -15.439672 3.7664175 0.90834117
-18.679277 -15.954831 3.8954 0.90529865
-18.741928 -15.966828 3.9016507 0.90509677
-18.804907 -15.978882 3.907933 0.90489382
-18.86816 -15.990995 3.914238 0.90468985
-18.931738 -16.003166 3.9205759 0.90448469
-18.995573 -16.015392 3.9269404 0.90427864
-19.013046 -15.988408 3.9236996 0.90429479
-19.01643 -15.949626 3.9175558 0.90437812
-19.019804 -15.910913 3.9114211 0.90446121
-19.023174 -15.872265 3.9052975 0.90454394
-19.026543 -15.833667 3.8991776 0.90462649
-19.029902 -15.795146 3.8930733 0.90470868
-19.033257 -15.756681 3.8869734 0.90479064
-19.036604 -15.718301 3.8808846 0.9048723
-19.039948 -15.679976 3.8748074 0.90495366
-19.043285 -15.641704 3.8687294 0.90503478
-19.046623 -15.603503 3.8626676 0.9051156
-19.049952 -15.565347 3.8566146 0.90519619
-19.05327 -15.527267 3.8505714 0.90527654
-19.056593 -15.489264 3.844532 0.90535653
-19.0599 -15.451301 3.8385012 0.90543634
-19.06321 -15.413405 3.8324807 0.90551579
-19.066511 -15.375571 3.8264694 0.905595
-19.069809 -15.33781 3.8204629 0.90567398
-19.073101 -15.300097 3.8144705 0.90575266
-19.076385 -15.262424 3.808481 0.90583116
-19.079662 -15.224838 3.8025038 0.9059093
-19.082947 -15.187314 3.7965317 0.9059872
-27.888449 -22.136658 5.5387144 0.86576879
-27.892134 -22.081137 5.5298023 0.86588168
-27.895805 -22.025679 5.5208998 0.86599427
-27.899477 -21.970341 5.5120077 0.86610639
-27.903139 -21.915077 5.50313 0.86621821
-27.906799 -21.859917 5.4942698 0.86632967
-27.910446 -21.804848 5.4854198 0.86644071
-27.914097 -21.749853 5.4765759 0.8665514
-27.917732 -21.694973 5.4677515 0.86666167
-27.921366 -21.640163 5.4589376 0.8667717
-27.924997 -21.585415 5.4501343 0.86688131
-27.928617 -21.530787 5.44135 0.86699057
-27.932238 -21.476234 5.4325733 0.86709946
-27.935844 -21.421761 5.4238071 0.86720794
-29.523136 -22.578571 5.7219968 0.86034596
-29.525785 -22.520334 5.7125416 0.86046398
-29.528425 -22.462198 5.7030993 0.86058164
-29.531057 -22.404133 5.6936693 0.86069894
-29.533697 -22.346151 5.6842504 0.86081588
-30.256313 -22.831633 5.8131824 0.85779554
-30.31757 -22.816532 5.8147984 0.85765964
-33.146053 -24.878256 6.3462033 0.84560114
-33.254959 -24.893017 6.3559604 0.84527522
-28.513054 -21.286076 5.4401402 0.86590284
-28.67716 -21.35104 5.4619117 0.86530823
-33.492249 -24.86887 6.3678808 0.84468174
-33.513065 -24.817263 6.360724 0.84473222
-31.159367 -23.012054 5.9036765 0.85493284
-31.176321 -22.962399 5.8965807 0.85499001
-28.929638 -21.250086 5.4621019 0.86481905
-31.270798 -22.907633 5.8938279 0.85484362
-29.472782 -21.532045 5.5452466 0.86271006
-29.486801 -21.4839 5.538197 0.86277187
-29.50082 -21.435795 5.5311537 0.86283344
-29.514807 -21.387753 5.5241122 0.86289471
-29.528786 -21.339714 5.5170727 0.86295581
-29.542755 -21.291739 5.5100451 0.86301661
-29.556715 -21.243782 5.5030198 0.86307722
-29.570652 -21.195879 5.4959936 0.86313754
-29.584581 -21.14798 5.4889708 0.86319768
-29.598497 -21.10014 5.4819531 0.86325753
-29.612377 -21.052317 5.4749289 0.86331725
-29.626268 -21.004534 5.4679198 0.86337662
-29.640139 -20.956799 5.4609103 0.86343575
-29.653996 -20.909071 5.4539022 0.86349469
-29.66785 -20.861416 5.4469066 0.86355335
-29.681677 -20.813778 5.4399071 0.86361176
-29.69549 -20.766169 5.4329076 0.86366999
-29.709307 -20.718594 5.4259191 0.86372793
-29.723095 -20.671049 5.4189281 0.86378568
-29.736874 -20.623543 5.4119434 0.8638432
-29.750639 -20.576063 5.4049573 0.86390048
-29.764397 -20.52862 5.3979783 0.86395752
-29.778143 -20.481213 5.3910084 0.86401427
-29.791872 -20.433823 5.3840308 0.86407083
-29.805586 -20.386486 5.377059 0.86412716
-29.819304 -20.339169 5.3701 0.86418325
-29.832998 -20.291887 5.3631372 0.8642391
-29.60021 -20.07748 5.3119459 0.86533618
-29.654055 -20.057886 5.3122621 0.86522102
-29.708 -20.038256 5.3125753 0.86510545
-29.76202 -20.018583 5.3128867 0.86498958
-29.816166 -19.998877 5.3131981 0.86487317
-29.870413 -19.979126 5.3135095 0.86475641
-29.924805 -19.959324 5.3138185 0.8646391
-29.942097 -19.914753 5.307539 0.86467755
-29.955683 -19.867744 5.3006005 0.86473137
-29.969267 -19.820766 5.2936707 0.86478484
-29.97937 -19.771555 5.2861328 0.86485261
-29.980286 -19.716339 5.2769823 0.86495858
-29.98118 -19.661201 5.2678394 0.8650642
-29.982107 -19.606159 5.2587233 0.86516941
-29.983007 -19.551159 5.2496057 0.86527437
-29.983906 -19.496273 5.2405052 0.86537892
-29.984797 -19.441442 5.231411 0.86548316
-29.98568 -19.386719 5.2223315 0.86558712
-29.986563 -19.332062 5.2132654 0.86569065
-29.987444 -19.277473 5.2042065 0.86579394
-29.988338 -19.222969 5.1951709 0.86589676
-29.989214 -19.168545 5.1861401 0.86599928
-29.990074 -19.114187 5.1771131 0.86610156
-29.99094 -19.059938 5.1681066 0.86620343
-29.991814 -19.005754 5.1591163 0.86630493
-29.992672 -18.95163 5.1501317 0.8664062
-29.993532 -18.897591 5.1411595 0.86650705
-29.994375 -18.843624 5.1321921 0.86660767
-29.995226 -18.78973 5.1232386 0.86670786
-29.996063 -18.735931 5.1142988 0.86680776
-29.996918 -18.682207 5.1053786 0.8669073
-30.02492 -18.645405 5.1010699 0.86689454
-30.21657 -18.709909 5.1245141 0.86620754
-29.862776 -18.437056 5.0555201 0.8677671
-29.769726 -18.32608 5.0308104 0.86825162
-29.677397 -18.215956 5.0062962 0.86873251
-29.58576 -18.10664 4.9819632 0.86920995
-29.494829 -17.998194 4.9578161 0.86968362
-29.404545 -17.890528 4.9338398 0.87015402
-29.314968 -17.783682 4.9100547 0.87062079
-29.226025 -17.677629 4.8864341 0.87108421
-29.137674 -17.572279 4.8629708 0.87154466
-31.640129 -19.025234 5.2712159 0.86141747
-31.73959 -19.028679 5.2783484 0.86111712
-31.839483 -19.032129 5.2855077 0.86081541
-31.939901 -19.035608 5.2927113 0.86051196
-32.040813 -19.039093 5.2999449 0.8602069
-32.142147 -19.042603 5.3072081 0.85990041
-32.194344 -19.016754 5.3063169 0.85979271
-32.241085 -18.9876 5.3045077 0.85970694
-32.287918 -18.958399 5.3027039 0.85962075
-32.334793 -18.929157 5.3008862 0.85953432
-35.435059 -19.517267 5.6033874 0.84928292
-35.475254 -19.478838 5.5995812 0.8492285
-35.515411 -19.440361 5.5957556 0.84917402
-35.555664 -19.401812 5.5919251 0.84911919
-35.595978 -19.363262 5.5881066 0.84906387
-35.636303 -19.324646 5.584271 0.84900844
-35.676624 -19.285986 5.5804224 0.84895283
-35.717003 -19.247316 5.5765796 0.84889686
-35.757416 -19.20857 5.5727234 0.84884071
-35.797894 -19.169785 5.5688658 0.84878415
-35.838352 -19.130999 5.5650072 0.84872746
-35.878941 -19.09214 5.5611463 0.84867024
-35.919506 -19.053247 5.5572753 0.8486129
-35.960114 -19.014303 5.5533957 0.84855527
-36.000706 -18.975323 5.5495043 0.84849757
-36.041451 -18.936275 5.545619 0.84843922
-36.082115 -18.897213 5.5417175 0.84838092
-36.122898 -18.858103 5.5378222 0.84832215
-36.163708 -18.81896 5.5339193 0.84826308
-36.204582 -18.779741 5.5300107 0.84820372
-36.245449 -18.740534 5.5261021 0.84814411
-36.2864 -18.701233 5.5221839 0.84808415
-36.327305 -18.661924 5.5182528 0.84802413
-36.368328 -18.622534 5.5143199 0.84796363
-36.409409 -18.583107 5.5103879 0.84790277
-36.450478 -18.543671 5.5064511 0.8478418
-55.247166 -28.014772 8.3306236 0.77879512
-55.162319 -27.880461 8.3024817 0.77922797
-54.991322 -27.703207 8.2614784 0.77996361
-54.772339 -27.50252 8.2133827 0.78086782
-51.411797 -25.730331 7.6951914 0.79293412
-51.423695 -25.651598 7.6827393 0.79301655
-51.435547 -25.572958 7.6702857 0.79309863
-51.447395 -25.49436 7.6578417 0.79318035
-51.459236 -25.41581 7.6454024 0.79326177
-51.452488 -25.328085 7.6302161 0.79340917
-51.433262 -25.234444 7.6131968 0.79360056
-51.414078 -25.140957 7.5962181 0.79379129
-51.39492 -25.047651 7.5792637 0.79398143
-51.37582 -24.954538 7.5623531 0.7941708
-51.356731 -24.861597 7.545465 0.79435968
-33.616104 -16.218676 4.9297547 0.86019772
-33.616928 -16.164413 4.9206762 0.86027962
-33.617744 -16.110203 4.9116087 0.86036122
-33.61858 -16.056023 4.9025526 0.86044252
-33.619385 -16.001972 4.8935013 0.86052346
-33.620201 -15.947907 4.8844581 0.86060423
-33.621014 -15.893938 4.8754282 0.86068457
-33.621849 -15.839966 4.866406 0.86076468
-33.622665 -15.786116 4.8573956 0.86084443
-33.623466 -15.732302 4.8483853 0.86092395
-33.624294 -15.678525 4.8393998 0.8610031
-33.625114 -15.624761 4.8304067 0.86108202
-51.533134 -23.863413 7.3890452 0.79526848
-51.536297 -23.782112 7.3755736 0.79537255
-49.815552 -22.908169 7.1158619 0.8015877
-49.622017 -22.739668 7.074841 0.80238783
-49.430164 -22.572662 7.0341697 0.80318141
-49.197735 -22.387812 6.9878516 0.80411923
-52.750771 -23.920492 7.4783359 0.791673
-52.797211 -23.857225 7.4707313 0.79162514
-53.021221 -23.873972 7.4882116 0.79095548
-48.276855 -21.660845 6.8052268 0.80783486
-47.681328 -21.317837 6.708497 0.81006908
-49.785858 -22.179607 6.9912791 0.80268097
-49.1227 -21.806198 6.8850293 0.80514109
-49.10136 -21.718901 6.8689356 0.805323
-49.080059 -21.631683 6.8528671 0.80550438
-49.058777 -21.544641 6.8368201 0.80568522
-49.037552 -21.457781 6.8208094 0.80586541
-49.016365 -21.371119 6.8048267 0.80604494
-48.995232 -21.284607 6.7888865 0.80622387
-48.974113 -21.198198 6.7729549 0.80640233
-48.953041 -21.111973 6.7570567 0.80658013
-48.923252 -21.022148 6.739985 0.80678833
-48.846451 -20.912401 6.7164783 0.8071624
-48.716152 -20.780085 6.6856871 0.80772543
-48.586628 -20.648598 6.6550717 0.80828512
-48.457939 -20.517937 6.6246591 0.80884129
-48.461929 -20.443745 6.6124253 0.80892718
-48.510262 -20.388227 6.6062403 0.80885583
-48.558598 -20.332685 6.6000462 0.80878419
-48.607037 -20.277058 6.5938511 0.80871207
-48.655567 -20.221348 6.5876536 0.80863953
-48.704071 -20.165619 6.5814414 0.80856675
-48.75267 -20.109802 6.5752234 0.80849349
-48.801342 -20.053925 6.5690074 0.80841982
-48.850014 -19.997995 6.5627685 0.80834591
-48.898735 -19.942038 6.5565343 0.80827165
-48.947571 -19.885967 6.5502954 0.80819678
-47.256752 -19.125818 6.3116879 0.81425768
-47.239979 -19.04583 6.2971349 0.81441063
-47.223198 -18.965977 6.2825928 0.81456316
-47.180664 -18.87598 6.264657 0.81480628
-49.171806 -19.596621 6.5162525 0.80788946
-49.214046 -19.537485 6.5090599 0.80783653
-49.28981 -19.491585 6.5062952 0.80766594
-49.340706 -19.435633 6.5002122 0.80758244
-49.391571 -19.379681 6.4941125 0.80749869
-49.442558 -19.323626 6.4880137 0.80741441
-49.493603 -19.267504 6.4819126 0.80732971
-49.544731 -19.211304 6.4758029 0.80724454
-49.595844 -19.15509 6.4696774 0.80715919
-49.647083 -19.098763 6.4635544 0.8070733
-49.698357 -19.042377 6.4574194 0.80698705
-49.745907 -18.9844 6.4507785 0.80691367
-49.367771 -18.764675 6.3890405 0.80832171
-49.420052 -18.709036 6.3831053 0.80823046
-49.472351 -18.653324 6.377152 0.80813897
-49.524708 -18.597525 6.3711815 0.80804706
-49.577198 -18.541647 6.3652158 0.80795461
-49.629753 -18.485704 6.3592491 0.80786169
-49.682346 -18.429705 6.3532677 0.8077684
-49.734989 -18.373617 6.3472705 0.80767483
-49.78772 -18.317495 6.3412843 0.80758065
-49.84053 -18.261257 6.3352771 0.80748612
-49.893448 -18.204956 6.329277 0.80739105
-49.946384 -18.148569 6.3232508 0.80729574
-49.999447 -18.0921 6.3172264 0.80719978
-50.052494 -18.03561 6.3111939 0.80710363
-50.061005 -17.962971 6.2995372 0.80716121
-50.06691 -17.889454 6.2875547 0.80722737
-50.072834 -17.815935 6.2755785 0.80729318
-50.07872 -17.74251 6.2636094 0.80735874
-50.084621 -17.669106 6.2516465 0.80742383
-50.090557 -17.595741 6.2397046 0.80748856
-50.096462 -17.522388 6.2277536 0.80755299
-50.594639 -17.620583 6.2768869 0.8059234
-50.734291 -17.592943 6.2813964 0.80552846
-50.864365 -17.561672 6.2846484 0.80516666
-50.90694 -17.499926 6.2770653 0.80510509
-50.949448 -17.438166 6.2694626 0.8050434
-50.992031 -17.376328 6.2618527 0.80498123
-57.922836 -15.806442 6.4530029 0.78541237
-57.802685 -15.689556 6.4255271 0.78587979
-57.683094 -15.57319 6.3981895 0.78634495
-57.56406 -15.457419 6.3709655 0.78680778
-57.001125 -15.223386 6.2948008 0.78872675
-56.86993 -15.10578 6.2664719 0.78922904
-56.739449 -14.988766 6.2383094 0.78972864
-56.60968 -14.872377 6.2103028 0.79022545
-56.480545 -14.756606 6.1824217 0.79071975
-56.352043 -14.641376 6.1546874 0.79121166
-56.22419 -14.526714 6.1270909 0.79170102
-55.918633 -14.366762 6.0802536 0.79277486
-57.764221 -14.757435 6.2669382 0.7867915
-57.735493 -14.666546 6.2498569 0.78695452
-57.706806 -14.575864 6.2327967 0.78711689
-57.678162 -14.485275 6.2157664 0.78727877
-57.649559 -14.394873 6.1987586 0.78744
-57.621006 -14.304564 6.181777 0.78760076
-57.566555 -14.208004 6.1620445 0.78784555
-57.564011 -14.12432 6.1478891 0.78792059
-57.535595 -14.034408 6.1309934 0.78807956
-57.504734 -13.944027 6.1138525 0.78824615
-57.463291 -13.851229 6.0956149 0.78844684
-57.315456 -13.73313 6.0661459 0.78899407
-57.337597 -13.655915 6.0546985 0.78898644
-57.3577 -13.578199 6.0430331 0.78898519
-57.365261 -13.497499 6.0300574 0.78902447
-57.372803 -13.416868 6.0170789 0.78906339
-57.345692 -13.328166 6.000483 0.78921485
-57.3102 -13.23764 5.983027 0.78939319
-57.274761 -13.147254 5.9655967 0.78957099
-57.235188 -13.056044 5.9477735 0.78976184
-57.176014 -12.960552 5.9279261 0.79001611
-57.117058 -12.865326 5.9081564 0.7902692
-55.848621 -12.499585 5.7635961 0.79447067
-56.999535 -12.675588 5.8687401 0.79077291
-56.941032 -12.581044 5.8491211 0.79102331
-56.882645 -12.486684 5.8295383 0.79127294
-56.824432 -12.392646 5.8100147 0.79152149
-56.766357 -12.298794 5.7905359 0.79176927
-56.708447 -12.205197 5.7711129 0.79201609
-56.617779 -12.104751 5.7483921 0.79236919
-56.461128 -11.990642 5.7190466 0.79293674
-56.305325 -11.877156 5.6898584 0.79350138
-59.043633 -12.370507 5.9525318 0.78468388
-59.173969 -12.313359 5.9516001 0.7843222
-59.304699 -12.256022 5.9506564 0.78395927
-58.716534 -11.29852 5.7524533 0.78640831
-58.800964 -11.231238 5.7468286 0.78619003
-58.885727 -11.163776 5.7412009 0.78597063
-58.970779 -11.096105 5.7355614 0.78575009
-59.055878 -11.028316 5.7298975 0.7855292
-59.14135 -10.960285 5.7242246 0.78530699
-59.226967 -10.892149 5.718545 0.78508407
-59.313 -10.823792 5.7128673 0.78485978
-59.391605 -10.753972 5.706449 0.78465897
-59.397869 -10.670868 5.6930528 0.78468978
-59.404125 -10.587825 5.6796656 0.78472018
-59.410427 -10.504705 5.6662793 0.7847501
-59.416737 -10.421644 5.652904 0.78477967
-55.716919 -9.5360565 5.2616086 0.79685247
-55.724911 -9.4585543 5.2492881 0.79687238
-55.732861 -9.3810692 5.2369418 0.79689217
-55.740833 -9.3036146 5.2246156 0.79691148
-55.748833 -9.2260876 5.2122889 0.79693037
-55.748116 -9.1471796 5.1991491 0.79697716
-55.729641 -9.065361 5.1843629 0.79708129
-55.711182 -8.9836006 5.1695862 0.79718494
-55.692757 -8.9019775 5.1548362 0.79728806
-55.599182 -8.8084803 5.1331568 0.7976346
-55.336342 -8.6887302 5.0959468 0.7985301
-55.0387 -8.56427 5.0556526 0.79953897
-53.720127 -8.2832718 4.9219751 0.80387658
-53.76442 -8.2142572 4.9134622 0.80377239
-53.808895 -8.1450939 4.9049525 0.80366737
-53.853416 -8.0758505 4.8964338 0.80356187
-53.898029 -8.0065174 4.8879104 0.80345589
-53.9426 -7.9371214 4.8793588 0.80334967
-53.987362 -7.8675613 4.8708091 0.80324262
-54.032158 -7.7979259 4.8622456 0.80313516
-54.076981 -7.7282104 4.8536677 0.80302739
-54.107094 -7.65625 4.8437595 0.80296719
-54.107807 -7.58007 4.8312178 0.80300248
-54.108459 -7.5039744 4.8186712 0.80303758
-54.109135 -7.4278808 4.8061323 0.80307227
-54.109844 -7.3517623 4.7936025 0.80310649
-54.110519 -7.2756896 4.7810659 0.80314046
-54.111244 -7.1996174 4.7685499 0.80317396
-54.111977 -7.1235156 4.7560315 0.8032071
-54.112679 -7.0474911 4.7435145 0.80323994
-54.113426 -6.9713964 4.7310004 0.80327231
-54.114143 -6.8953977 4.7184939 0.80330443
-54.11491 -6.8193502 4.7059989 0.80333608
-55.285427 -6.8890762 4.7949495 0.79957432
-55.301765 -6.8133478 4.7835331 0.79955542
-55.309772 -6.7365961 4.7713928 0.79956317
-55.304436 -6.6581869 4.758111 0.79961371
-55.280293 -6.5775671 4.7432141 0.7997247
-55.25618 -6.4969902 4.7283401 0.79983521
-55.224777 -6.4156418 4.7128468 0.79996896
-55.190544 -6.3340988 4.6971426 0.80011147
-55.156357 -6.2526879 4.6814575 0.80025345
-55.1222 -6.1713758 4.6657925 0.80039495
-55.088123 -6.0901437 4.6501608 0.80053586
-55.054085 -6.0090466 4.6345487 0.80067629
-55.020088 -5.9280248 4.6189561 0.80081624
-54.98616 -5.8470993 4.6033978 0.80095553
-54.952251 -5.7663145 4.5878448 0.80109441
-54.918423 -5.6856318 4.5723305 0.80123276
-54.884624 -5.6050305 4.5568299 0.80137056
-54.850899 -5.5246153 4.5413632 0.80150771
-54.8172 -5.4441881 4.5259094 0.80164456
-54.783573 -5.363955 4.510488 0.8017807
-54.749973 -5.2837849 4.4950819 0.80191642
-54.716419 -5.2036939 4.4796939 0.80205166
-54.663147 -5.121913 4.462709 0.80225027
-54.593254 -5.0387168 4.4444194 0.80250233
-54.523518 -4.9557219 4.426168 0.80275351
-54.453979 -4.8729844 4.4079604 0.80300367
-54.384617 -4.7904139 4.389811 0.803253
-34.805176 -2.7237525 2.7532885 0.86928874
-34.795895 -2.6741724 2.7445946 0.86933649
-48.562664 6.445281 2.1912417 0.82188898
-68.978256 14.732688 2.2375143 0.75406396
-68.810966 14.802205 2.2156878 0.75451535
-68.604103 14.862771 2.1926851 0.75508916
-68.398277 14.923013 2.1697881 0.75566006
-68.193565 14.982952 2.1470296 0.75622785
-68.587486 15.174786 2.1430576 0.75494134
-68.472214 15.254492 2.1230943 0.75523072
-68.357208 15.334028 2.1031911 0.75551915
-68.232742 15.41112 2.0830395 0.75583673
-68.011131 15.465866 2.0599999 0.75645554
-67.951408 15.557063 2.0419152 0.75657195
-67.776649 15.621696 2.0204153 0.75704545
-67.553932 15.674726 1.997576 0.75766832
-67.33255 15.727461 1.9748843 0.75828755
-67.317696 15.828205 1.9582843 0.75826311
-67.304932 15.929461 1.9417355 0.7582317
-67.292168 16.030769 1.9251876 0.75819981
-67.279434 16.132214 1.9086404 0.75816727
-67.266685 16.233646 1.8920828 0.75813431
-66.621628 16.181562 1.8578912 0.7600773
-67.241211 16.436726 1.858966 0.75806677
-67.228477 16.538372 1.842398 0.7580322
-67.212929 16.639338 1.825736 0.75800598
-67.188255 16.738132 1.8088354 0.75800771
-67.163605 16.836948 1.7919406 0.75800896
-67.476593 17.020935 1.7839682 0.75695425
-67.516228 17.136644 1.7686754 0.75675327
-67.551414 17.251427 1.7532321 0.75656557
-67.5867 17.366491 1.7377566 0.75637698
-67.622139 17.481789 1.7222695 0.75618732
-67.65757 17.597275 1.7067394 0.75599712
-67.69313 17.713034 1.6911871 0.75580597
-72.809219 19.166439 1.8013049 0.73989654
-72.798393 19.278339 1.7833282 0.73984426
-72.763481 19.38394 1.7647616 0.73986518
-72.728546 19.489536 1.7461859 0.73988569
-72.693657 19.595154 1.7276281 0.73990554
-72.658737 19.700745 1.709057 0.73992503
-72.623878 19.8064 1.6905044 0.73994374
-72.589005 19.912043 1.6719476 0.73996198
-72.554161 20.017723 1.6533999 0.73997968
-72.519318 20.123367 1.6348507 0.73999691
-73.364838 20.474731 1.6359448 0.73731238
-73.451149 20.615814 1.6198559 0.7369563
-73.579178 20.769148 1.6046209 0.73647177
-73.707756 20.92312 1.5893236 0.73598498
-73.817101 21.0721 1.5735419 0.73555648
-73.91259 21.217602 1.5573852 0.73516971
-74.008507 21.363701 1.5411984 0.73478097
-54.338081 16.297449 1.0376108 0.79695594
-67.086037 20.446522 1.2311172 0.75534999
-67.058395 20.546799 1.2139435 0.75534225
-67.055908 20.654894 1.1972299 0.75525439
-67.055923 20.763885 1.1805319 0.75515807
-67.05822 20.873699 1.1638687 0.75505394
-67.077255 20.988895 1.1474701 0.75489628
-67.104729 21.106928 1.1311929 0.75471127
-67.116089 21.220121 1.1146033 0.75457662
-67.116745 21.330025 1.0978366 0.7544753
-67.117409 21.440092 1.0810488 0.75437337
-67.118073 21.550249 1.0642389 0.75427085
-67.118736 21.660574 1.0474234 0.75416774
-67.1194 21.771049 1.0305859 0.75406402
-67.120064 21.881655 1.0137427 0.75395972
-67.120728 21.992357 0.99687684 0.75385481
-67.121391 22.103228 0.97998744 0.75374931
-67.122063 22.214252 0.963085 0.75364316
-67.122726 22.325386 0.94615906 0.75353646
-67.123398 22.43664 0.92923492 0.75342917
-67.124062 22.548073 0.91227901 0.75332129
-67.124733 22.659641 0.8953082 0.75321269
-67.125404 22.771322 0.87833035 0.75310361
-67.126076 22.883183 0.86132109 0.75299382
-67.126747 22.995153 0.84430385 0.75288349
-67.127419 23.10729 0.82726288 0.75277251
-67.128098 23.219578 0.81021482 0.75266093
-67.128769 23.331961 0.79314208 0.75254875
-67.129448 23.444527 0.77604461 0.75243592
-67.130127 23.557243 0.7589395 0.75232249
-67.130798 23.670101 0.74180967 0.75220841
-67.131477 23.783064 0.72466338 0.75209385
-67.132156 23.896254 0.70750916 0.75197846
-67.132843 24.009542 0.69032866 0.75186253
-66.994186 26.71381 0.27156052 0.74938875
-67.006065 29.448448 -0.13975753 0.74619573
-14.692671 6.6169186 -0.054622497 0.93757737
-14.662016 6.6298141 -0.05851486 0.93766218
-14.652383 6.6521969 -0.062486265 0.9376604
-14.644384 6.6753001 -0.066465147 0.93765175
-14.658344 6.7084985 -0.070552975 0.93755233
-67.042198 32.170376 -0.5454936 0.74270761
-35.549095 18.341038 -0.48068359 0.85212833
-35.43116 18.348671 -0.48929167 0.85247314
-35.43166 18.417561 -0.49951369 0.85236305
-35.432156 18.486557 -0.509758 0.85225248
-35.441742 18.560427 -0.52014464 0.85210645
-35.442242 18.629683 -0.53042358 0.85199481
-35.442745 18.699118 -0.54071593 0.85188258
-35.443245 18.768633 -0.5510301 0.85176992
-35.443748 18.838274 -0.56134796 0.85165673
-35.444252 18.908085 -0.57169569 0.85154295
-35.444756 18.977995 -0.58206725 0.85142875
-35.445263 19.048067 -0.59244263 0.85131389
-35.44577 19.118237 -0.6028415 0.85119861
-35.44627 19.188559 -0.61325943 0.85108274
-35.446781 19.259016 -0.62369168 0.85096633
-26.73579 14.579171 -0.47829315 0.88530326
-26.540009 14.525186 -0.48262754 0.88600332
-26.54051 14.578289 -0.49048004 0.88591081
-26.541012 14.631518 -0.49835172 0.88581789
-26.541508 14.684855 -0.50623429 0.88572454
-26.551117 14.743339 -0.51430863 0.88559389
-26.55162 14.796916 -0.52222061 0.8854996
-26.552124 14.850573 -0.53014755 0.88540488
-26.552639 14.904346 -0.53809398 0.88530976
-26.553139 14.958215 -0.54604429 0.88521427
-26.553646 15.012185 -0.55401778 0.88511825
-26.554157 15.066286 -0.56200331 0.88502181
-26.554667 15.120509 -0.57000458 0.88492489
-26.555178 15.174818 -0.57801789 0.88482755
-26.555693 15.229246 -0.58604753 0.88472974
-26.556204 15.283751 -0.59409207 0.88463157
-26.556721 15.338403 -0.60215026 0.88453281
-26.557226 15.393171 -0.61022413 0.88443369
-26.557753 15.448025 -0.61831433 0.88433409
-26.558271 15.503023 -0.6264177 0.88423401
-26.558786 15.558099 -0.63453716 0.88413358
-26.559305 15.613313 -0.64267635 0.88403261
-26.559824 15.668638 -0.65082288 0.88393116
-26.56035 15.724069 -0.65898591 0.88382924
-26.560869 15.779616 -0.66716903 0.88372689
-26.561396 15.835301 -0.67536968 0.88362402
-26.56192 15.891088 -0.68357986 0.88352072
-26.562447 15.94698 -0.69181073 0.88341701
-26.562979 16.003019 -0.70005524 0.8833127
-26.563503 16.059147 -0.70831633 0.88320804
-26.564034 16.115421 -0.71659547 0.88310277
-26.56456 16.17181 -0.72488278 0.8829971
-26.565098 16.228296 -0.73319679 0.88289094
-26.56563 16.284939 -0.74152416 0.88278425
-26.566166 16.341688 -0.7498644 0.88267714
-26.566694 16.398554 -0.75822735 0.88256955
-26.567236 16.455547 -0.76659912 0.88246143
-26.567772 16.512682 -0.77500159 0.88235277
-26.568306 16.569916 -0.78340513 0.88224375
-26.568851 16.627279 -0.79182774 0.88213414
-26.569384 16.684774 -0.80027777 0.88202405
-26.569937 16.742392 -0.80874425 0.88191348
-26.570478 16.800163 -0.8172195 0.88180232
-26.57102 16.85803 -0.82571697 0.88169074
-26.571568 16.916037 -0.83423048 0.88157868
-26.572113 16.974173 -0.8427645 0.88146603
-26.57266 17.03245 -0.85131109 0.8813529
-26.573215 17.090847 -0.85988325 0.8812393
-26.573765 17.149384 -0.86846364 0.88112515
-26.57431 17.208042 -0.8770712 0.88101047
-26.574873 17.26684 -0.88569164 0.88089526
-26.575424 17.325769 -0.89433211 0.88077956
-26.575979 17.38483 -0.90298802 0.88066334
-26.57654 17.444035 -0.91167068 0.88054657
-26.577095 17.503374 -0.92036778 0.88042933
-26.577654 17.562853 -0.92908257 0.88031149
-26.578217 17.622467 -0.93781441 0.88019311
-26.578779 17.682213 -0.94656676 0.8800742
-26.57934 17.742088 -0.95534027 0.87995481
-24.150337 16.174911 -0.87600017 0.89019108
-24.070198 16.175373 -0.88105452 0.89042652
-23.990385 16.175837 -0.88608402 0.89066076
-23.910908 16.176296 -0.89109212 0.89089388
-23.831789 16.176758 -0.89607626 0.89112574
-23.753019 16.177212 -0.90103996 0.89135635
-23.674572 16.177668 -0.90597624 0.89158589
-23.596493 16.178137 -0.91089225 0.89181405
-23.518751 16.178614 -0.91579008 0.89204109
-23.441328 16.179079 -0.92066604 0.89226699
-23.365334 16.180298 -0.925551 0.89248693
-23.365652 16.234324 -0.93347228 0.89237523
-23.336767 16.268135 -0.94022077 0.89239013
-23.260233 16.268597 -0.94503814 0.89261252
-23.184008 16.26906 -0.94983399 0.89283377
-23.108095 16.269518 -0.95460743 0.89305395
-23.032509 16.269978 -0.95935827 0.893273
-22.957235 16.27043 -0.96409106 0.89349097
-22.882256 16.270885 -0.96880138 0.89370781
-22.807583 16.271336 -0.97349507 0.89392364
-22.733232 16.271788 -0.97816265 0.89413834
-13.820103 9.9246283 -0.5994432 0.93416679
-13.775331 9.9250488 -0.60226381 0.93430126
-13.730727 9.9254761 -0.60508424 0.93443507
-13.686318 9.9258909 -0.60790497 0.93456811
-13.64209 9.9263153 -0.61069351 0.93470049
-13.598018 9.9267311 -0.61348206 0.93483227
-13.594858 9.9569721 -0.61810255 0.93477452
-13.59516 9.9898386 -0.622899 0.93470031
-13.595478 10.022785 -0.62770432 0.93462569
-13.595786 10.05581 -0.6325227 0.93455082
-13.596098 10.088938 -0.63735241 0.93447554
-13.596406 10.122133 -0.64219314 0.93439996
-13.596719 10.155427 -0.64704728 0.93432403
-13.597031 10.188801 -0.65191251 0.93424773
-13.597343 10.22226 -0.65678936 0.93417108
-13.597671 10.255811 -0.66168517 0.93409407
-13.597983 10.28946 -0.66657883 0.9340167
-13.598306 10.323176 -0.67149568 0.93393898
-13.598613 10.356992 -0.67642301 0.93386096
-13.59894 10.390896 -0.68136245 0.93378252
-13.599262 10.424905 -0.68631637 0.93370366
-13.599575 10.458982 -0.69127959 0.93362457
-13.599897 10.493161 -0.69625896 0.93354499
-13.600224 10.527433 -0.70124906 0.93346512
-13.600542 10.561804 -0.70625103 0.93338484
-13.600864 10.596252 -0.71126753 0.93330425
-13.601196 10.630795 -0.71629834 0.93322319
-13.601523 10.665437 -0.72134519 0.93314183
-13.601851 10.700175 -0.72640103 0.93306005
-13.602178 10.735009 -0.73146313 0.93297791
-13.602509 10.769941 -0.73654717 0.93289536
-13.602837 10.804966 -0.74164158 0.93281251
-13.603164 10.840083 -0.74675345 0.93272924
-13.603496 10.875307 -0.75187254 0.93264556
-13.603823 10.910625 -0.75701255 0.93256146
-13.604165 10.946045 -0.76216412 0.932477
-13.604502 10.98156 -0.76732719 0.93239212
-13.604829 11.017173 -0.77250713 0.93230689
-13.60517 11.052883 -0.77769715 0.93222123
-13.605503 11.088711 -0.78290749 0.93213522
-13.60584 11.124614 -0.78813231 0.9320488
-13.606186 11.160629 -0.79336125 0.93196195
-13.606524 11.196762 -0.79861283 0.93187469
-13.606865 11.232988 -0.80387419 0.93178701
-13.607206 11.269316 -0.80915546 0.93169892
-13.607553 11.305742 -0.81444943 0.93161047
-13.60789 11.342287 -0.81975591 0.93152159
-13.608237 11.37893 -0.82508045 0.93143225
-13.608583 11.415678 -0.83041775 0.93134254
-13.608931 11.452541 -0.83577186 0.93125236
-13.609272 11.489507 -0.84113759 0.93116182
-13.609629 11.526585 -0.8465268 0.9310708
-13.609981 11.56376 -0.85192215 0.93097937
-13.610332 11.601049 -0.85733914 0.93088752
-13.610679 11.638462 -0.86277157 0.93079525
-13.61104 11.675979 -0.8682164 0.93070251
-13.611391 11.713601 -0.87367821 0.93060935
-13.611738 11.751345 -0.87915236 0.93051577
-13.6121 11.789189 -0.88464379 0.93042171
-13.612455 11.827158 -0.89016134 0.93032724
-13.612812 11.865239 -0.89568633 0.93023229
-13.613173 11.903435 -0.9012264 0.93013692
-13.613535 11.941733 -0.90678138 0.93004113
-13.613896 11.980173 -0.91235828 0.92994481
-13.614258 12.018713 -0.91795689 0.92984807
-13.614624 12.057368 -0.92356163 0.92975092
-13.61499 12.096157 -0.92918766 0.92965323
-13.615352 12.135058 -0.93482536 0.92955512
-13.615727 12.174067 -0.94048703 0.92945653
-13.616094 12.21322 -0.94616389 0.92935747
-13.61646 12.252485 -0.9518556 0.92925793
-13.616831 12.291867 -0.95756644 0.92915797
-13.617202 12.331374 -0.96329457 0.92905748
-13.617573 12.371011 -0.96904057 0.92895651
-13.617949 12.410767 -0.97480565 0.92885506
-13.618325 12.450654 -0.98058647 0.92875314
-13.618701 12.490664 -0.98638326 0.92865074
-13.619081 12.530803 -0.99220306 0.92854786
-13.619457 12.571064 -0.99803954 0.92844445
-13.619839 12.61146 -1.003895 0.92834055
-13.620214 12.651982 -1.0097636 0.92823619
-13.620605 12.692632 -1.0156573 0.92813128
-13.620981 12.733418 -1.0215673 0.9280259
-13.621372 12.774336 -1.0274984 0.92791998
-13.621762 12.815375 -1.0334435 0.92781359
-13.622143 12.856567 -1.0394109 0.92770666
-13.622539 12.897881 -1.045397 0.92759925
-13.622925 12.939333 -1.0514046 0.92749131
-13.623315 12.980923 -1.0574253 0.92738283
-13.623711 13.022651 -1.0634699 0.92727381
-13.624106 13.064507 -1.0695326 0.92716432
-13.624501 13.106524 -1.0756158 0.92705417
-13.624892 13.148657 -1.0817182 0.92694366
-13.625298 13.190945 -1.0878435 0.9268325
-13.625689 13.233378 -1.0939871 0.9267208
-13.626099 13.275947 -1.1001552 0.92660856
-13.626493 13.318657 -1.1063387 0.92649585
-13.626899 13.361513 -1.1125396 0.92638248
-13.627299 13.404531 -1.1187638 0.92626864
-13.627714 13.447685 -1.1250136 0.92615414
-13.628115 13.490981 -1.1312809 0.92603916
-13.62853 13.534429 -1.1375694 0.92592359
-13.628935 13.57803 -1.1438823 0.92580748
-13.629351 13.621777 -1.1502162 0.92569077
-13.629756 13.665673 -1.1565638 0.92557353
-13.63018 13.709726 -1.1629468 0.92545569
-13.63059 13.753925 -1.1693482 0.92533726
-13.631005 13.79829 -1.1757605 0.92521822
-13.631431 13.842793 -1.1822019 0.92509866
-13.63185 13.887463 -1.1886617 0.92497849
-13.63227 13.932285 -1.19515 0.92485774
-13.6327 13.977284 -1.2016587 0.92473626
-13.633115 14.022427 -1.2081945 0.92461431
-13.63355 14.067724 -1.2147527 0.92449176
-13.633974 14.113183 -1.2213311 0.92436856
-13.634409 14.15882 -1.2279353 0.9242447
-13.634844 14.204614 -1.2345537 0.92412031
-13.635268 14.250571 -1.2412153 0.92399526
-13.635698 14.296694 -1.2478832 0.92386961
-13.636132 14.342993 -1.2545834 0.92374331
-13.636577 14.389458 -1.2612994 0.92361635
-13.637012 14.436074 -1.2680514 0.9234888
-13.637456 14.482881 -1.2748257 0.92336053
-13.637896 14.529851 -1.2816135 0.92323172
-13.63834 14.576997 -1.2884308 0.9231022
-13.638783 14.624311 -1.295274 0.92297208
-13.639233 14.671811 -1.3021426 0.92284125
-13.639683 14.719482 -1.3090419 0.92270976
-13.640126 14.767344 -1.3159631 0.92257762
-13.640581 14.815361 -1.3229046 0.92244482
-13.64104 14.863582 -1.3298819 0.92231125
-13.641499 14.911967 -1.3368835 0.92217714
-13.641948 14.960542 -1.343907 0.92204231
-13.642412 15.009306 -1.3509581 0.92190671
-13.642871 15.058242 -1.3580335 0.92177051
-13.643334 15.107392 -1.3651457 0.92163354
-13.643794 15.156713 -1.3722746 0.92149591
-13.644262 15.206223 -1.3794399 0.92135757
-13.644732 15.25592 -1.3866228 0.92121851
-13.6452 15.305813 -1.393841 0.9210788
-13.645674 15.355903 -1.4010855 0.92093831
-13.646147 15.406191 -1.4083557 0.92079705
-13.646621 15.45666 -1.41565 0.92065519
-13.647099 15.507336 -1.4229817 0.9205125
-13.647583 15.558217 -1.4303393 0.92036909
-13.648061 15.609286 -1.4377279 0.92022496
-13.64854 15.660576 -1.4451431 0.92008001
-13.649023 15.712055 -1.4525852 0.91993439
-13.649511 15.76374 -1.460059 0.919788
-13.65 15.815637 -1.4675632 0.91964078
-13.650488 15.867739 -1.4750971 0.91949284
-13.650986 15.920058 -1.4826701 0.91934407
-13.651474 15.972558 -1.4902564 0.9191947
-13.651973 16.025307 -1.497884 0.91904432
-13.652471 16.078259 -1.505545 0.91889328
-13.652973 16.13142 -1.5132217 0.91874141
-13.653471 16.184807 -1.5209439 0.91858876
-13.653975 16.238394 -1.5287009 0.91843528
-13.654482 16.292221 -1.5364758 0.91828102
-13.65499 16.346272 -1.5442919 0.91812587
-13.655502 16.400534 -1.5521429 0.91796994
-13.65602 16.455021 -1.5600232 0.91781324
-13.656538 16.509747 -1.5679275 0.91765559
-13.65705 16.564688 -1.575875 0.91749722
-13.657573 16.619883 -1.5838673 0.91733789
-13.658091 16.675278 -1.5918766 0.9171778
-13.658613 16.730923 -1.5999119 0.91701686
-13.659145 16.786816 -1.6080039 0.91685492
-13.659663 16.84292 -1.6161178 0.91669232
-13.660205 16.899286 -1.6242712 0.91652864
-13.660742 16.955883 -1.6324524 0.91636419
-13.661274 17.012724 -1.6406751 0.91619879
-13.661811 17.069822 -1.6489294 0.91603255
-13.662349 17.12715 -1.6572227 0.91586536
-13.66289 17.184738 -1.6655471 0.91569734
-13.663432 17.242558 -1.6739084 0.91552836
-13.663984 17.300625 -1.6823062 0.91535854
-13.664536 17.358974 -1.6907524 0.91518766
-13.665088 17.417578 -1.699226 0.91501588
-13.665639 17.476427 -1.7077329 0.9148432
-13.666191 17.535547 -1.7162889 0.91466951
-13.656518 17.581743 -1.7235862 0.91455615
-13.589091 17.553514 -1.7235824 0.91478825
-13.52204 17.525463 -1.7235788 0.9150188
-13.455346 17.49754 -1.723575 0.9152481
-13.388999 17.46974 -1.7235712 0.91547608
-13.323037 17.442114 -1.7235675 0.91570252
-13.257407 17.414623 -1.7235638 0.91592765
-13.192163 17.387306 -1.7235601 0.91615134
-13.127232 17.360111 -1.7235565 0.91637379
-13.062661 17.333059 -1.7235528 0.91659486
-12.998442 17.306171 -1.7235491 0.91681451
-12.93458 17.279423 -1.7235456 0.91703284
-12.871016 17.252798 -1.723542 0.91724998
-12.807797 17.226299 -1.7235383 0.91746581
-12.744917 17.199951 -1.7235348 0.91768032
-12.682373 17.173731 -1.7235312 0.91789359
-12.620127 17.147644 -1.7235278 0.9181056
-12.558251 17.121735 -1.7235243 0.91831619
-12.496655 17.095903 -1.7235209 0.91852576
-12.43537 17.070202 -1.7235174 0.91873407
-12.374453 17.044682 -1.7235141 0.91894096
-12.313799 17.019243 -1.7235105 0.91914684
-12.253457 16.993944 -1.7235072 0.91935146
-12.193442 16.968798 -1.7235038 0.91955477
-12.133716 16.943769 -1.7235005 0.91975695
-12.074282 16.918818 -1.7234972 0.91995817
-12.015165 16.894024 -1.7234938 0.92015803
-11.956333 16.869358 -1.7234904 0.92035675
-11.897798 16.844807 -1.7234873 0.92055428
-11.839575 16.820393 -1.7234838 0.92075068
-11.781616 16.796074 -1.7234807 0.920946
-11.723955 16.771894 -1.7234775 0.92114013
-11.666553 16.747807 -1.723474 0.92133331
-11.609463 16.723843 -1.723471 0.92152524
-11.552631 16.699999 -1.7234678 0.92171615
-11.496089 16.676273 -1.7234646 0.92190593
-11.439809 16.652641 -1.7234614 0.9220947
-11.383803 16.629137 -1.7234582 0.9222824
-11.328056 16.605721 -1.7234552 0.92246908
-11.27353 16.583801 -1.7235959 0.92264849
-11.219414 16.562246 -1.723761 0.92282575
-11.165562 16.540785 -1.7239259 0.92300206
-11.111938 16.519382 -1.7240885 0.92317754
-11.058564 16.498116 -1.7242513 0.92335188
-11.005429 16.476929 -1.7244139 0.92352539
-10.952515 16.455805 -1.7245742 0.92369807
-10.899873 16.434828 -1.7247369 0.92386955
-10.847436 16.413897 -1.7248971 0.92404032
-10.795239 16.393066 -1.7250551 0.92421013
-10.743286 16.372324 -1.7252153 0.92437905
-10.691557 16.351688 -1.7253708 0.92454696
-10.640059 16.331152 -1.7255287 0.92471397
-10.588769 16.31065 -1.7256842 0.92488033
-10.537739 16.290295 -1.7258421 0.92504549
-10.486909 16.270006 -1.7259952 0.92520988
-10.436289 16.249783 -1.7261506 0.92537349
-10.385913 16.229656 -1.7263037 0.92553616
-10.335756 16.209639 -1.7264569 0.92569786
-10.285806 16.189678 -1.7266099 0.92585886
-10.236069 16.169794 -1.7267631 0.92601901
-10.186543 16.150028 -1.7269113 0.92617822
-10.137221 16.130278 -1.727062 0.92633682
-10.088115 16.110659 -1.7272128 0.92649442
-10.039219 16.091089 -1.7273636 0.92665124
-9.9913816 16.072989 -1.7276605 0.9268012
-9.943882 16.055201 -1.7279794 0.92694938
-9.8965673 16.037445 -1.7282958 0.9270969
-9.8494282 16.019768 -1.7286099 0.92724371
-9.8024654 16.002131 -1.728924 0.92738986
-9.7557173 15.984587 -1.729238 0.92753512
-9.7091503 15.967131 -1.7295499 0.9276796
-9.662734 15.949673 -1.7298614 0.92782366
-9.6165524 15.932358 -1.7301707 0.92796659
-9.5705128 15.915058 -1.73048 0.92810911
-9.524663 15.897846 -1.7307843 0.92825079
-9.4789886 15.880669 -1.7310935 0.92839181
-9.4334908 15.863569 -1.731398 0.92853218
-9.3881741 15.846528 -1.7317001 0.92867178
-9.3430223 15.82956 -1.7320019 0.92881072
-8.9053659 15.144843 -1.6591433 0.93184489
-8.8613329 15.12676 -1.6592163 0.93198544
-8.8174458 15.108715 -1.659289 0.93212545
-8.7737255 15.090742 -1.6593615 0.9322648
-8.7302151 15.072864 -1.6594337 0.93240321
-8.6868696 15.055054 -1.6595056 0.93254101
-8.6436958 15.037297 -1.6595771 0.93267816
-8.600688 15.019611 -1.6596485 0.9328146
-8.5578566 15.001985 -1.6597197 0.93295032
-8.5151997 14.984431 -1.6597905 0.93308538
-8.4727049 14.966943 -1.6598611 0.93321979
-8.4303951 14.949526 -1.6599313 0.93335342
-8.3882275 14.932168 -1.6600013 0.93348646
-8.34624 14.914878 -1.660071 0.93361884
-8.304409 14.897655 -1.6601406 0.93375051
-8.2627487 14.880488 -1.6602099 0.93388158
-8.2212448 14.863366 -1.660279 0.93401206
-8.1799116 14.846345 -1.6603477 0.9341417
-8.1387205 14.829365 -1.6604162 0.9342708
-8.0976906 14.81245 -1.6604844 0.93439931
-8.0568161 14.795576 -1.6605526 0.93452722
-8.0161133 14.778789 -1.6606203 0.93465436
-7.9755416 14.762055 -1.6606878 0.93478096
-7.9351315 14.745366 -1.6607553 0.93490696
-7.8948975 14.728769 -1.6608223 0.93503219
-7.8547997 14.712212 -1.6608891 0.93515688
-7.8148336 14.695693 -1.6609558 0.9352811
-7.775044 14.679255 -1.6610219 0.9354046
-7.7353854 14.662861 -1.6610882 0.9355275
-7.6960645 14.64686 -1.6611902 0.93564844
-7.6571436 14.63144 -1.6613542 0.93576652
-7.6183834 14.616074 -1.6615176 0.935884
-7.579751 14.600761 -1.6616806 0.93600094
-7.5412645 14.58552 -1.6618428 0.93611729
-7.5029149 14.570297 -1.6620047 0.9362331
-7.4647021 14.555129 -1.662166 0.93634844
-7.4266257 14.540034 -1.6623266 0.93646306
-7.3886719 14.52497 -1.6624868 0.93657726
-7.3508639 14.509971 -1.6626464 0.93669081
-7.313159 14.494995 -1.6628058 0.936804
-7.27561 14.480073 -1.6629645 0.93691659
-7.2381883 14.465199 -1.6631227 0.93702865
-7.2008886 14.450385 -1.6632802 0.93714011
-7.1637301 14.435613 -1.6634375 0.93725109
-7.1266894 14.420881 -1.6635944 0.93736154
-7.0897803 14.406194 -1.6637504 0.93747151
-7.0530028 14.391567 -1.6639062 0.93758088
-7.0163426 14.376972 -1.6640614 0.93768984
-6.9797997 14.362402 -1.6642164 0.93779832
-6.9433885 14.34791 -1.6643707 0.93790621
-6.9071045 14.333452 -1.6645246 0.93801361
-6.8709326 14.319042 -1.6646777 0.93812048
-6.8348875 14.304677 -1.6648306 0.93822688
-6.7989597 14.290346 -1.6649832 0.93833286
-6.7631493 14.276059 -1.6651351 0.9384383
-6.7274561 14.261811 -1.6652867 0.93854326
-6.6919041 14.247612 -1.6654379 0.93864769
-6.6564503 14.233459 -1.6655884 0.9387517
-6.6211181 14.219336 -1.6657386 0.93885523
-6.5858884 14.205256 -1.6658884 0.93895829
-6.550786 14.19122 -1.6660379 0.93906081
-6.5283985 14.204665 -1.6694119 0.93904889
-6.5216846 14.252365 -1.6768168 0.93889445
-6.5221338 14.316142 -1.6861247 0.93867338
-6.522583 14.3804 -1.6955044 0.93845057
-6.5230465 14.445166 -1.7049618 0.93822587
-6.5235009 14.510409 -1.7144873 0.93799943
-6.5239697 14.576161 -1.724088 0.93777108
-6.5244384 14.642431 -1.7337649 0.93754083
-6.5248585 14.709106 -1.7435054 0.93730915
-6.525249 14.776211 -1.7533123 0.93707591
-6.5256491 14.843864 -1.7631999 0.93684059
-6.7146826 15.343083 -1.8244157 0.93483192
-6.6808152 15.3351 -1.8253858 0.93490911
-6.6461911 15.325197 -1.826122 0.93499392
-6.6116357 15.315295 -1.826856 0.93507844
-6.5771923 15.305442 -1.8275875 0.93516243
-6.5428171 15.295595 -1.8283165 0.93524617
-6.5085201 15.285781 -1.8290455 0.9353295
-6.4743214 15.275957 -1.8297746 0.93541253
-6.4401999 15.266186 -1.8305035 0.93549514
-6.4061718 15.256415 -1.8312253 0.93557745
-6.3722215 15.246679 -1.8319495 0.93565935
-6.3383546 15.236958 -1.8326712 0.93574089
-6.304575 15.227251 -1.8333905 0.93582213
-6.270864 15.217578 -1.8341098 0.93590295
-6.237246 15.207895 -1.8348291 0.93598354
-4.0751367 9.9835348 -1.2057425 0.95752668
-4.0558057 9.983716 -1.2069985 0.95755327
-4.0364842 9.9839058 -1.2082554 0.95757967
-4.0171971 9.9840822 -1.2095113 0.95760602
-3.9979248 9.9842672 -1.2107651 0.95763212
-3.9786913 9.9844427 -1.2120175 0.95765811
-3.9594579 9.9846287 -1.2132696 0.95768398
-3.9402587 9.9848089 -1.2145201 0.95770967
-3.9210789 9.9849949 -1.2157723 0.95773524
-3.9019139 9.9851704 -1.2170193 0.95776069
-3.8827782 9.9853563 -1.2182696 0.95778596
-3.8636522 9.9855366 -1.2195189 0.95781112
-3.8445654 9.985713 -1.2207682 0.95783609
-3.8325195 10.004263 -1.2242601 0.95778507
-3.8330078 10.055796 -1.2318001 0.95759791
-3.8334911 10.107817 -1.2394111 0.95740896
-3.8339942 10.160307 -1.2470959 0.95721817
-3.8344922 10.213305 -1.2548496 0.95702541
-3.8349903 10.266772 -1.2626773 0.95683092
