# .PCD v0.7 - Point Cloud Data file format
VERSION 0.7
FIELDS x y z intensity
SIZE 4 4 4 4
TYPE F F F F
COUNT 1 1 1 1
WIDTH 1137
HEIGHT 1
VIEWPOINT 0 0 0 1 0 0 0
POINTS 1137
DATA ascii
13.270967 36.674255 3.0020289 0.85515922
13.338481 36.700405 2.9970131 0.85499823
13.406167 36.726624 2.9919872 0.85483652
13.474048 36.752914 2.9869506 0.85467416
13.542124 36.779293 2.9819069 0.85451108
13.610375 36.805729 2.9768462 0.85434735
13.678803 36.832237 2.9717789 0.85418296
13.747416 36.85881 2.9666939 0.85401785
13.816206 36.88546 2.9615974 0.85385209
13.885229 36.912193 2.9564912 0.85368562
13.954399 36.938992 2.9513791 0.85351843
14.023804 36.965889 2.9462476 0.85335046
13.780385 36.171314 2.8757894 0.85619563
14.16311 37.019859 2.9359546 0.85301262
14.233071 37.046963 2.9307864 0.85284263
14.303212 37.074135 2.9256051 0.85267192
14.373564 37.101402 2.9204183 0.85250044
14.307661 36.778065 2.8876803 0.85361552
14.397358 36.855431 2.8864419 0.8532595
14.487524 36.933197 2.8851984 0.85290146
14.578188 37.011402 2.8839586 0.85254133
14.669409 37.090069 2.8827093 0.85217893
14.366572 36.175701 2.804446 0.85547388
14.416909 36.154331 2.7955775 0.85548031
14.538403 36.31057 2.8004117 0.85483032
14.15977 34.796455 2.6557863 0.86015409
14.215703 34.793587 2.6485903 0.86009246
14.271694 34.790733 2.6413808 0.86003047
14.327759 34.787861 2.6341672 0.85996819
14.383872 34.784996 2.62695 0.85990554
14.440103 34.78212 2.6197281 0.85984254
14.496377 34.779247 2.6124971 0.85977924
15.153804 36.212749 2.7128687 0.85436493
15.253633 36.307579 2.712625 0.85393536
15.187817 36.008663 2.6829998 0.85496873
15.213096 35.927044 2.669642 0.85519481
15.223002 35.809696 2.6536629 0.8555541
15.217797 35.657654 2.6351535 0.8560431
15.212631 35.506683 2.6167731 0.85652864
15.207485 35.356853 2.5985405 0.8570106
15.202382 35.20789 2.5804107 0.85748971
15.197305 35.060081 2.5624292 0.85796511
15.19227 34.913231 2.5445623 0.85843742
16.290005 37.291889 2.710295 0.84947312
15.426187 35.178814 2.5495207 0.85728246
15.480962 35.168552 2.5415688 0.85724097
15.256968 34.527237 2.4881275 0.85957319
15.234238 34.344364 2.4678998 0.86018324
15.211694 34.163109 2.4478493 0.86078805
16.461918 36.830627 2.631393 0.85068655
16.489111 36.751778 2.6181805 0.85089612
16.516226 36.673168 2.6050091 0.8511048
16.543247 36.594788 2.5918779 0.8513127
16.570204 36.516609 2.5787842 0.85151976
16.597115 36.438602 2.5657265 0.85172617
16.623905 36.360859 2.5527027 0.85193169
16.650654 36.283321 2.5397298 0.85213637
16.677319 36.205986 2.5267844 0.85234034
16.703911 36.12886 2.5138826 0.85254347
16.730429 36.051968 2.5010097 0.85274577
16.75688 35.975254 2.488183 0.85294741
16.783257 35.898785 2.47539 0.85314816
16.80957 35.822483 2.4626281 0.8533482
16.835806 35.746399 2.4499125 0.85354745
16.861967 35.670532 2.4372258 0.85374594
16.888071 35.594849 2.424583 0.85394371
16.914097 35.519375 2.4119682 0.85414064
16.940054 35.444107 2.3993893 0.85433686
41.636284 68.064423 3.5204611 0.72653544
41.638157 67.847038 3.4933047 0.72707438
41.640015 67.630669 3.4662783 0.72761077
41.57605 67.308594 3.433929 0.72851014
41.643726 67.200615 3.4125736 0.7286765
41.64555 66.987022 3.3858888 0.72920573
41.647377 66.774323 3.3593318 0.72973257
41.649204 66.562546 3.3329122 0.73025703
41.651028 66.351685 3.306592 0.73077905
41.652836 66.141747 3.2804019 0.73129874
41.654633 65.932663 3.254297 0.73181617
41.656441 65.724518 3.228364 0.7323311
41.658226 65.517189 3.2024977 0.73284394
41.659996 65.310791 3.1767647 0.73335427
41.661751 65.105247 3.1511507 0.73386246
41.663528 64.900536 3.1256387 0.73436838
41.665287 64.69677 3.1002474 0.7348718
41.667034 64.493797 3.0749471 0.73537314
41.668785 64.291626 3.0497742 0.73587233
41.670521 64.090294 3.0247118 0.73636937
41.672249 63.889839 2.9997685 0.73686403
41.673958 63.690273 2.9749043 0.73735636
41.684174 63.504436 2.9507523 0.73780084
41.817085 63.505581 2.935318 0.73758453
41.950249 63.506752 2.9198534 0.73736727
42.083668 63.507893 2.9043596 0.73714924
42.217434 63.509056 2.8888409 0.73693025
42.351498 63.51022 2.8732769 0.73671031
42.485794 63.511375 2.8576992 0.73648953
42.620464 63.512543 2.8420837 0.73626775
42.755386 63.513718 2.8264465 0.73604518
42.89064 63.514881 2.8107762 0.7358216
43.026165 63.516068 2.7950664 0.73559707
43.162025 63.517239 2.7793458 0.73537165
43.298157 63.518414 2.7635744 0.73514539
43.434624 63.519604 2.7477865 0.73491806
43.571419 63.520786 2.7319558 0.73468977
43.708469 63.521973 2.7160993 0.73446071
43.845875 63.523163 2.7002075 0.73423052
43.983547 63.524372 2.6842897 0.73399949
40.021675 57.622593 2.4203665 0.75518113
40.023197 57.445751 2.3984642 0.75561917
40.239449 57.576836 2.3893993 0.75492191
40.370579 57.585312 2.3751543 0.75467551
40.502064 57.593796 2.360884 0.75442809
40.591675 57.542515 2.3441298 0.75440061
40.593178 57.36655 2.3223429 0.75483376
40.5947 57.191322 2.3006415 0.75526476
40.033695 56.226738 2.2474539 0.75863284
40.076519 56.11314 2.2285242 0.75883979
40.182365 56.087772 2.21311 0.75871706
40.288296 56.062347 2.1976647 0.75859392
40.394466 56.036911 2.1822164 0.75846994
40.500736 56.011463 2.1667469 0.75834537
40.607193 55.985962 2.1512544 0.75822014
40.713764 55.960415 2.1357405 0.75809437
40.820549 55.934883 2.1202233 0.75796777
40.927494 55.909309 2.1046844 0.75784057
41.034634 55.88369 2.0891223 0.75771266
41.14185 55.858047 2.0735378 0.75758421
41.249233 55.832371 2.0579391 0.75745517
41.35685 55.806675 2.0423279 0.75732523
41.464684 55.78096 2.0267038 0.75719458
41.572594 55.755184 2.0110443 0.75706345
41.680618 55.729393 1.9953711 0.75693172
41.788921 55.703594 1.9796933 0.7567991
41.897358 55.677727 1.963974 0.75666595
42.005962 55.651825 1.94824 0.75653207
42.114731 55.625923 1.9325006 0.75639755
42.223648 55.599991 1.9167364 0.7562623
42.332779 55.574009 1.9009488 0.7561264
42.442085 55.547997 1.8851455 0.75598979
42.551529 55.521954 1.8693182 0.75585252
42.661148 55.495888 1.853472 0.7557146
42.770988 55.469769 1.8376049 0.7555759
42.881031 55.44363 1.8217202 0.75543648
42.991158 55.417469 1.8058178 0.75529647
43.101597 55.391258 1.7898937 0.75515562
43.212093 55.365028 1.7739511 0.75501424
43.322807 55.338745 1.7579745 0.75487208
43.433743 55.312454 1.741997 0.75472915
43.544819 55.286102 1.725986 0.75458568
43.656128 55.259735 1.7099584 0.75444132
43.767582 55.233318 1.6939038 0.75429636
43.879192 55.206879 1.6778314 0.75415075
43.991028 55.180408 1.6617416 0.7540043
44.10305 55.153889 1.6456252 0.7538572
44.21526 55.127346 1.6294922 0.75370932
44.32769 55.100765 1.6133382 0.75356072
44.440277 55.074154 1.59716 0.75341141
44.553082 55.047493 1.5809518 0.75326139
44.666069 55.020805 1.5647345 0.75311059
44.779232 54.994091 1.5484899 0.75295913
44.892632 54.967312 1.5322176 0.7528069
45.006157 54.940517 1.5159243 0.75265402
45.119934 54.913677 1.4996136 0.7525003
45.233891 54.886799 1.4832742 0.75234592
45.348099 54.859905 1.4669223 0.75219065
45.462494 54.832947 1.4505349 0.75203472
45.577007 54.805965 1.4341339 0.75187814
45.69183 54.778938 1.4177068 0.75172061
45.806812 54.751884 1.4012567 0.75156242
45.921928 54.724766 1.3847686 0.75140363
46.037357 54.697639 1.3682775 0.75124383
46.152943 54.670448 1.3517474 0.75108343
46.268745 54.643246 1.3352045 0.7509222
46.384781 54.615955 1.3186237 0.75076032
46.501019 54.588684 1.3020397 0.75059748
46.617397 54.56134 1.2854141 0.7504341
46.734097 54.533962 1.2687683 0.75026971
46.851002 54.50655 1.2521002 0.75010461
46.968071 54.479099 1.2354089 0.74993873
47.085346 54.451572 1.218678 0.74977219
47.205032 54.426517 1.2019953 0.74959493
48.839241 42.169231 -0.45017043 0.7725122
48.991341 42.170879 -0.46692398 0.7721526
49.154663 42.181702 -0.48383605 0.77174795
49.307934 42.183369 -0.50070953 0.77138501
49.4618 42.18502 -0.51764584 0.77102041
49.616226 42.186687 -0.53463608 0.77065414
49.771294 42.18837 -0.5516969 0.77028608
49.926994 42.190048 -0.56883425 0.76991618
50.083244 42.191753 -0.58600003 0.76954466
50.240227 42.193447 -0.60326016 0.76917112
50.397709 42.195137 -0.62057722 0.76879615
50.555855 42.196854 -0.63796645 0.76841921
50.714546 42.198578 -0.65541428 0.76804066
50.874039 42.200302 -0.67292237 0.76765996
51.03397 42.20203 -0.69050801 0.76727796
51.194721 42.20377 -0.70814103 0.76689363
51.356049 42.205505 -0.72586119 0.76650769
51.517982 42.207264 -0.74362689 0.76611996
51.680588 42.209023 -0.76148641 0.76573038
51.84391 42.210796 -0.77942264 0.76533878
52.007885 42.212566 -0.79740918 0.76494533
52.172455 42.214355 -0.81542903 0.76455009
52.337749 42.216137 -0.83358282 0.76415288
52.503765 42.21793 -0.851762 0.76375371
52.670376 42.219734 -0.87004024 0.76335275
52.837719 42.22155 -0.88839519 0.76294976
53.005783 42.223362 -0.90680218 0.76254481
53.174507 42.225185 -0.92529178 0.76213795
53.343941 42.22702 -0.94384903 0.76172906
53.514076 42.228855 -0.96249038 0.76131827
53.684937 42.230713 -0.98120344 0.76090539
53.856537 42.232578 -0.99997956 0.76049048
54.028824 42.234425 -1.018856 0.76007366
54.201939 42.236317 -1.0378112 0.75965452
54.375698 42.238201 -1.0568067 0.75923359
54.550198 42.240074 -1.0758815 0.75881058
54.725445 42.241978 -1.0950518 0.75838548
54.90144 42.243877 -1.1142973 0.75795835
55.078236 42.245789 -1.1336384 0.75752896
55.255737 42.247715 -1.1530387 0.7570976
55.434055 42.249649 -1.1725594 0.75666404
55.613186 42.251572 -1.1921145 0.75622827
55.793003 42.253521 -1.2117604 0.75579047
55.973648 42.255486 -1.2314913 0.75535047
56.155132 42.257446 -1.2513102 0.75490814
56.337357 42.259422 -1.2712543 0.75446373
56.520454 42.261395 -1.2912183 0.754017
56.704269 42.263378 -1.3112823 0.75356823
56.888969 42.265373 -1.3314624 0.75311708
57.074467 42.267391 -1.351719 0.75266373
57.260845 42.269413 -1.372015 0.75220799
57.448021 42.271423 -1.3924366 0.75175005
57.636028 42.273457 -1.4129574 0.75128984
57.824837 42.275505 -1.4335743 0.75082743
58.014683 42.277569 -1.4542323 0.75036222
58.20517 42.279629 -1.4750072 0.74989522
18.779194 13.596938 -0.48104721 0.91141295
18.608906 13.430088 -0.48177642 0.91227263
18.609335 13.386899 -0.48687378 0.91236305
18.609741 13.343794 -0.49195251 0.91245323
18.620747 13.308345 -0.49730742 0.91249543
18.62187 13.265888 -0.50238723 0.91258168
18.62229 13.223012 -0.50744492 0.91267073
18.6227 13.180215 -0.51248425 0.91275942
18.623116 13.1375 -0.51752377 0.91284776
18.623539 13.094883 -0.52253997 0.91293567
18.623945 13.052314 -0.52755189 0.91302335
18.624355 13.009863 -0.53255004 0.91311049
18.624769 12.967456 -0.53753936 0.91319746
18.62517 12.925141 -0.5425151 0.913284
18.62558 12.8829 -0.5474875 0.91337019
18.62599 12.840756 -0.55244488 0.91345602
18.626396 12.798657 -0.5573929 0.9135415
18.626816 12.756675 -0.56233215 0.91362655
18.627222 12.71475 -0.56725967 0.91371137
18.627617 12.672905 -0.5721783 0.91379577
18.628021 12.631123 -0.57708526 0.91387987
18.628418 12.589448 -0.58198607 0.91396362
18.628822 12.547836 -0.58686447 0.914047
18.629223 12.506289 -0.59174973 0.91413003
18.629633 12.464833 -0.59662139 0.9142127
18.630033 12.423432 -0.60147977 0.91429508
18.630424 12.382109 -0.60631913 0.91437709
18.630825 12.340855 -0.6111725 0.91445881
18.63122 12.299687 -0.61599743 0.91454017
18.631617 12.258598 -0.62082088 0.91462111
18.632017 12.217564 -0.62563306 0.91470182
18.632421 12.176611 -0.63042814 0.91478211
18.632807 12.135742 -0.63522047 0.9148621
18.633207 12.094941 -0.64001006 0.91494173
18.633593 12.054199 -0.64477795 0.91502112
18.633999 12.013535 -0.6495474 0.9151001
18.634384 11.972935 -0.65430039 0.91517878
18.634785 11.932407 -0.65904814 0.9152571
18.63517 11.891943 -0.66378218 0.91533518
18.635561 11.851552 -0.66851836 0.91541284
18.635952 11.811231 -0.67323548 0.91549021
18.636337 11.770986 -0.67795026 0.91556722
18.636728 11.730796 -0.68264586 0.91564399
18.637114 11.690683 -0.68733501 0.9157204
18.637505 11.650635 -0.69201469 0.91579646
18.63789 11.610659 -0.69670159 0.91587222
18.638275 11.570752 -0.70136303 0.91594762
18.638666 11.530889 -0.70602238 0.91602278
18.639042 11.491108 -0.71067029 0.91609758
18.639423 11.451386 -0.71531135 0.91617209
18.639818 11.411753 -0.71994168 0.91624624
18.640196 11.372149 -0.72456282 0.91632015
18.640575 11.332637 -0.72917563 0.91639364
18.640957 11.293169 -0.7337907 0.91646695
18.641338 11.253779 -0.73839062 0.91653985
18.641724 11.214462 -0.7429772 0.91661245
18.642094 11.175171 -0.74756628 0.91668481
18.642485 11.135991 -0.75213635 0.91675675
18.64286 11.096846 -0.75670177 0.91682845
18.643242 11.057783 -0.76126289 0.9168998
18.643614 11.01876 -0.76581174 0.91697091
18.64399 10.979799 -0.77035564 0.91704172
18.644369 10.940918 -0.77489281 0.91711211
18.644735 10.902075 -0.77941251 0.91718239
18.645117 10.863305 -0.78393292 0.91725218
18.645493 10.824599 -0.78844804 0.91732174
18.645868 10.785952 -0.79295033 0.917391
18.646244 10.747349 -0.79744464 0.91746002
18.646616 10.708823 -0.80193341 0.91752869
18.646992 10.670341 -0.80640966 0.91759706
18.647352 10.631919 -0.81088513 0.91766518
18.647724 10.593569 -0.81534886 0.91773295
18.648096 10.555264 -0.81980872 0.91780049
18.648462 10.517021 -0.82425809 0.91786772
18.648842 10.478833 -0.82870126 0.9179346
18.649214 10.440718 -0.83313411 0.91800117
18.649574 10.402637 -0.83756125 0.91806751
18.64994 10.364638 -0.84198308 0.91813356
18.650307 10.326679 -0.84639919 0.9181993
18.650679 10.288779 -0.85080481 0.91826475
18.651039 10.250937 -0.85520226 0.91832995
18.651405 10.213135 -0.85959417 0.91839486
18.677694 10.18955 -0.86518162 0.91835088
18.748774 10.190244 -0.8728503 0.91811943
18.820259 10.190937 -0.88058078 0.9178865
18.892181 10.191641 -0.88833928 0.91765201
36.694622 19.721195 -1.7339883 0.84638762
36.514427 19.55064 -1.7339621 0.84719789
36.336517 19.382128 -1.7339364 0.84799844
36.160591 19.215498 -1.7339108 0.84879047
36.006496 19.061226 -1.7348492 0.84949762
35.86644 18.915092 -1.7363837 0.85014981
35.729603 18.771309 -1.7379942 0.85078871
35.594124 18.628897 -1.739588 0.85142154
35.459759 18.4877 -1.7411673 0.85204917
35.326626 18.347792 -1.7427343 0.85267121
35.194641 18.209106 -1.744287 0.85328794
35.052738 18.065947 -1.7452664 0.85394198
34.903561 17.919668 -1.7458045 0.85462314
34.755676 17.774761 -1.7463355 0.85529846
34.609379 17.631376 -1.7468618 0.85596681
34.464527 17.489384 -1.7473812 0.85662872
34.321068 17.348749 -1.7478982 0.85728449
34.179115 17.209511 -1.7484082 0.85793364
34.026859 17.0658 -1.7483175 0.85862154
32.318745 16.145489 -1.6678517 0.86531395
32.180668 16.013271 -1.6679872 0.86594534
32.043987 15.882343 -1.6681215 0.86657065
31.908754 15.752783 -1.6682544 0.86718947
31.774799 15.624443 -1.6683859 0.8678025
31.647884 15.500166 -1.6688219 0.86838752
31.523266 15.377568 -1.6693062 0.86896288
31.399702 15.256079 -1.6697857 0.86953336
31.277367 15.135742 -1.6702603 0.87009829
31.156097 15.016455 -1.6707304 0.8706584
31.045834 14.903017 -1.6717287 0.87117505
30.939526 14.791982 -1.6728849 0.87167567
30.834126 14.681855 -1.6740294 0.87217206
30.729584 14.572598 -1.6751622 0.87266439
30.625814 14.464213 -1.676286 0.87315297
30.530102 14.360122 -1.6777967 0.87360966
30.441839 14.259932 -1.679666 0.87403691
30.354204 14.160459 -1.6815219 0.874461
30.267153 14.061669 -1.6833653 0.8748821
30.180853 13.963613 -1.6851946 0.87529969
30.097513 13.867338 -1.6871545 0.87570512
30.022787 13.775414 -1.6895493 0.87607658
29.948618 13.684087 -1.6919291 0.87644535
29.874809 13.593281 -1.694295 0.87681198
29.801508 13.503061 -1.6966456 0.87717605
29.728704 13.413437 -1.6989799 0.87753755
29.664848 13.328154 -1.70179 0.87786394
29.602358 13.243798 -1.7046496 0.87818444
29.540306 13.159946 -1.707492 0.87850267
29.478638 13.076562 -1.7103187 0.87881875
29.41724 12.993603 -1.7131276 0.87913328
16.196157 7.123208 -0.9466967 0.93157858
16.189081 7.0894971 -0.9497807 0.93165249
16.182007 7.0558543 -0.95285678 0.9317261
16.174952 7.0222802 -0.95592993 0.93179941
16.16791 6.9887743 -0.95899463 0.93187243
16.160883 6.9553366 -0.96205211 0.93194509
16.153868 6.9219627 -0.96510524 0.93201751
16.165985 6.8968115 -0.9692933 0.93201196
16.184883 6.874526 -0.97389483 0.93197882
16.203789 6.8522315 -0.97849846 0.93194544
16.222719 6.8298826 -0.98310941 0.93191189
16.241674 6.807529 -0.98772401 0.93187809
16.089994 6.7139206 -0.98192978 0.93253475
16.084209 6.6815186 -0.98500168 0.93260038
16.078423 6.6491795 -0.98806626 0.93266577
16.07268 6.6169138 -0.99112362 0.93273073
16.066908 6.5846972 -0.99417949 0.93279558
16.061192 6.5525293 -0.99722683 0.93285996
16.055445 6.5204196 -1.00027 0.93292427
16.049726 6.4883838 -1.0033077 0.93298817
16.042055 6.4556003 -1.0062141 0.93305975
16.027309 6.4200487 -1.0086703 0.93315953
16.068129 6.4067383 -1.0146239 0.93303543
17.765009 7.0505567 -1.1255136 0.92627478
17.769751 7.0197067 -1.1295525 0.92629957
17.774492 6.9888668 -1.1335868 0.92632419
17.779222 6.9580564 -1.1376168 0.92634869
17.78397 6.9272556 -1.1416442 0.92637283
17.788687 6.8964596 -1.1456739 0.92639697
17.793432 6.8656979 -1.1496977 0.92642075
17.804945 6.8375487 -1.1541587 0.92641741
17.81646 6.8093896 -1.1586201 0.92641389
17.827972 6.7812109 -1.1630853 0.92641026
17.839502 6.753037 -1.1675513 0.92640632
17.851025 6.7248535 -1.1720171 0.92640227
17.861952 6.6964307 -1.1764463 0.92640042
17.87081 6.6672363 -1.1807346 0.92640656
17.879663 6.6380367 -1.1850277 0.92641258
17.888515 6.6088376 -1.1893181 0.92641836
17.897383 6.5796432 -1.193607 0.92642397
17.906225 6.5504394 -1.1978995 0.92642945
18.05625 6.5726318 -1.2116638 0.92587703
18.093506 6.5534472 -1.2178956 0.92577034
18.132685 6.534873 -1.2242695 0.92565602
18.172197 6.5162988 -1.2306756 0.92554033
18.266577 6.5171924 -1.2408233 0.92520857
18.403124 6.5327487 -1.2538754 0.92471123
19.665205 6.9453416 -1.3439031 0.91980314
18.139917 6.3739939 -1.2433867 0.9258256
18.294365 6.3954 -1.2577217 0.92525756
18.411192 6.4031835 -1.2695196 0.92483795
18.573359 6.4262643 -1.284498 0.92424107
19.742319 6.7953219 -1.3693725 0.91971105
19.672054 6.7359371 -1.3685158 0.92002606
19.769966 6.734077 -1.3793566 0.91968548
19.747387 6.6910934 -1.3818023 0.91981411
19.724857 6.6482224 -1.3842394 0.91994226
19.936859 6.684082 -1.4031694 0.91915822
20.18433 6.7310839 -1.4246877 0.91823775
20.282026 6.727529 -1.4357001 0.91789949
20.265785 6.686069 -1.4386578 0.91800296
20.24959 6.6447215 -1.4416145 0.9181059
20.362661 6.6456494 -1.4537818 0.91770816
20.373072 6.6128807 -1.4586444 0.91770786
21.295971 6.8746481 -1.5290276 0.91418612
21.294907 6.8365769 -1.5332501 0.91423136
21.231148 6.7785106 -1.5329415 0.91451758
21.292768 6.7605028 -1.5416815 0.91432106
21.291704 6.7225194 -1.5458915 0.91436553
21.371958 6.7101364 -1.5560206 0.91409725
21.365366 6.6703467 -1.5598319 0.91416264
21.900122 6.798667 -1.6032721 0.91215211
21.866459 6.7496729 -1.6051971 0.91232145
21.832954 6.7008839 -1.6071167 0.91248977
22.83353 6.9678321 -1.6853434 0.90870959
22.85141 6.9331102 -1.6912385 0.9086827
22.718519 6.8528757 -1.6859463 0.90922964
22.839878 6.8494091 -1.6995209 0.90880823
22.830873 6.8066406 -1.7034091 0.90888298
22.821869 6.7639451 -1.7072929 0.90895736
22.94099 6.7590818 -1.7207839 0.90854466
23.133745 6.7753906 -1.7398565 0.90785289
23.306087 6.7851267 -1.757459 0.90723944
23.259134 6.7308006 -1.7585487 0.90745717
23.197983 6.6725926 -1.75854 0.90772837
23.223042 6.6392722 -1.7650552 0.90767264
23.356684 6.6367674 -1.7798507 0.90720594
23.505365 6.6380563 -1.7958474 0.90668285
23.655863 6.63937 -1.8120347 0.90615344
23.80813 6.6406932 -1.8284174 0.90561789
23.962309 6.6420264 -1.8450029 0.90507573
24.118355 6.643364 -1.8617918 0.90452707
24.296928 6.6503658 -1.8803819 0.90389425
24.234898 6.5913281 -1.880373 0.9041661
24.173246 6.532661 -1.8803642 0.90443611
24.161283 6.4875684 -1.8842027 0.90451908
24.050982 6.4163084 -1.8803465 0.90497112
23.990435 6.3586473 -1.8803378 0.90523583
23.930141 6.3012695 -1.8803291 0.90549928
24.020533 6.2835593 -1.8921615 0.90519655
24.168901 6.2806444 -1.9086038 0.9046765
24.319105 6.2777047 -1.9252493 0.90415007
24.483051 6.2777829 -1.943037 0.90357274
24.654566 6.2792673 -1.9614934 0.90296763
24.828461 6.2807813 -1.980202 0.90235436
24.812983 6.2341599 -1.9838383 0.90244836
24.752201 6.1763086 -1.9838295 0.90271115
24.691694 6.1187401 -1.9838208 0.90297258
24.631567 6.0615234 -1.9838121 0.90323222
24.571743 6.0046091 -1.9838034 0.90349036
24.512192 5.9479785 -1.9837948 0.90374714
24.453022 5.8916893 -1.9837862 0.90400213
24.394156 5.8356833 -1.9837779 0.90425563
24.335629 5.7799706 -1.9837693 0.90450752
24.277369 5.7245603 -1.983761 0.9047581
24.219458 5.6694627 -1.9837526 0.90500695
24.1618 5.6146383 -1.9837443 0.90525454
24.104536 5.5601268 -1.983736 0.90550035
24.047485 5.5058985 -1.9837278 0.90574497
23.990717 5.4519138 -1.9837196 0.90598822
23.934292 5.3982615 -1.9837115 0.90622985
23.878178 5.344873 -1.9837034 0.90647
23.822309 5.291748 -1.9836954 0.90670884
23.766703 5.2389059 -1.9836873 0.90694642
23.711451 5.1863475 -1.9836793 0.90718234
23.65641 5.1340427 -1.9836714 0.90741718
23.601675 5.0820117 -1.9836634 0.90765047
23.54726 5.0302439 -1.9836557 0.90788233
23.493111 4.9787693 -1.9836477 0.90811282
23.439194 4.9275389 -1.9836401 0.90834212
23.385551 4.876543 -1.9836323 0.90857011
23.332172 4.82582 -1.9836246 0.90879679
23.279078 4.7753611 -1.9836169 0.90902209
23.226234 4.7251267 -1.9836093 0.90924615
23.173666 4.6751757 -1.9836017 0.90946883
23.121342 4.6254492 -1.9835942 0.90969032
23.069283 4.5759864 -1.9835865 0.90991056
23.017416 4.5267482 -1.983579 0.91012973
22.965855 4.4777732 -1.9835715 0.9103474
22.914576 4.4290233 -1.9835643 0.91056383
22.86351 4.3805079 -1.983557 0.91077912
22.812651 4.3322263 -1.9835495 0.91099334
22.762104 4.2841992 -1.9835423 0.91120607
22.711752 4.2363868 -1.9835349 0.91141778
22.661625 4.1888084 -1.9835277 0.91162837
22.611752 4.1414747 -1.9835205 0.91183776
22.562134 4.094336 -1.9835132 0.91204584
22.512739 4.047461 -1.9835061 0.91225284
22.463558 4.0007715 -1.9834991 0.91245878
22.414614 3.9543164 -1.9834919 0.91266352
22.365913 3.9080858 -1.9834849 0.91286707
22.317417 3.8620508 -1.983478 0.91306955
22.269165 3.8162498 -1.983471 0.91327089
22.221098 3.7706542 -1.983464 0.91347122
22.173275 3.7253027 -1.9834571 0.91367036
22.125668 3.6801269 -1.9834503 0.91386843
22.078247 3.6351562 -1.9834434 0.91406554
22.031059 3.5904198 -1.9834366 0.91426152
21.984116 3.5458691 -1.9834297 0.91445631
21.937378 3.501533 -1.983423 0.91465002
21.890804 3.4573925 -1.9834162 0.9148429
21.844467 3.4134471 -1.9834095 0.91503465
21.798325 3.3697166 -1.9834028 0.91522533
21.752377 3.3261621 -1.9833963 0.91541511
21.706646 3.2828221 -1.9833895 0.91560376
21.661118 3.2396777 -1.9833829 0.91579139
21.615786 3.1966991 -1.9833764 0.91597807
21.570629 3.1539452 -1.9833698 0.9161638
21.525679 3.1113672 -1.9833633 0.91634852
21.480923 3.0689745 -1.9833568 0.91653228
21.436401 3.0267773 -1.9833505 0.91671485
21.392036 2.9847655 -1.9833441 0.91689664
21.347857 2.9429102 -1.9833376 0.91707748
21.303852 2.9012694 -1.9833312 0.91725743
21.260023 2.8598046 -1.9833249 0.91743642
21.216421 2.8185253 -1.9833186 0.91761434
21.172974 2.7774119 -1.9833124 0.91779149
21.129751 2.7364745 -1.9833059 0.9179675
21.086655 2.6957128 -1.9832999 0.9181428
21.043755 2.6551366 -1.9832935 0.91831714
21.001049 2.6147363 -1.9832873 0.91849053
20.958471 2.5744922 -1.9832813 0.91866314
20.916098 2.5344238 -1.9832749 0.91883481
20.873949 2.4945409 -1.9832689 0.91900539
20.831919 2.4548047 -1.9832628 0.91917533
20.790073 2.4152441 -1.9832568 0.91934431
20.748394 2.3758495 -1.9832507 0.91951239
20.706869 2.336621 -1.9832445 0.9196797
20.665531 2.2975585 -1.9832386 0.91984612
20.624371 2.2586522 -1.9832327 0.92001158
20.583344 2.2199023 -1.9832268 0.92017639
20.542475 2.1813183 -1.9832208 0.9203403
20.501801 2.1429002 -1.9832149 0.92050332
20.461264 2.104619 -1.983209 0.92066556
20.420893 2.0665135 -1.9832031 0.92082697
20.380678 2.0285645 -1.9831973 0.92098761
20.34062 1.9907616 -1.9831915 0.92114741
20.300728 1.9531054 -1.9831856 0.92130637
20.260946 1.9155957 -1.9831799 0.92146468
20.221386 1.8782519 -1.9831741 0.92162198
20.181948 1.8410645 -1.9831685 0.92177862
20.142626 1.8040038 -1.9831626 0.9219346
20.103485 1.7671094 -1.983157 0.92208964
20.064501 1.7303613 -1.9831513 0.92224389
20.025679 1.6937597 -1.9831457 0.92239738
19.986973 1.6572949 -1.9831401 0.9225502
19.948437 1.6209766 -1.9831344 0.92270213
19.910015 1.5848047 -1.9831288 0.92285347
19.871748 1.5487695 -1.9831233 0.92300403
19.833628 1.5128613 -1.9831176 0.92315382
19.795658 1.4771191 -1.9831121 0.92330283
19.757793 1.4415039 -1.9831066 0.92345124
19.720118 1.4060254 -1.9831011 0.92359877
19.682564 1.3706738 -1.9830956 0.92374557
19.645126 1.3354882 -1.9830902 0.92389178
19.607841 1.3004053 -1.9830848 0.92403722
19.570692 1.2654638 -1.9830793 0.924182
19.533682 1.2306738 -1.9830739 0.924326
19.496782 1.195996 -1.9830685 0.92446941
19.459999 1.1614355 -1.9830631 0.92461216
19.423412 1.127041 -1.9830579 0.92475396
19.386929 1.0927588 -1.9830525 0.92489523
19.350542 1.0586035 -1.9830472 0.92503595
19.314331 1.0245751 -1.983042 0.92517579
19.278208 0.99068844 -1.9830366 0.92531508
19.242235 0.95691407 -1.9830314 0.92545366
19.206377 0.92327148 -1.9830263 0.92559159
19.170649 0.88975096 -1.9830209 0.92572892
19.135048 0.85634273 -1.9830157 0.92586547
19.099575 0.82305175 -1.9830105 0.92600143
19.064228 0.78991699 -1.9830053 0.92613673
19.028965 0.75688475 -1.9830003 0.9262715
18.993847 0.72397947 -1.9829952 0.92640555
18.958857 0.69118649 -1.9829899 0.92653894
18.923994 0.65850586 -1.9829849 0.92667162
18.889217 0.62595212 -1.9829799 0.92680383
18.85458 0.59350586 -1.9829746 0.92693537
18.820059 0.56118649 -1.9829696 0.92706627
18.785648 0.52899414 -1.9829646 0.92719656
18.751356 0.49688476 -1.9829595 0.92732626
18.717154 0.46491697 -1.9829545 0.92745543
18.68309 0.4330371 -1.9829496 0.92758387
18.649145 0.40130371 -1.9829446 0.92771173
18.615278 0.36966309 -1.9829396 0.9278391
18.581553 0.33813965 -1.9829347 0.92796576
18.54793 0.3067041 -1.9829298 0.92809182
18.514404 0.27541015 -1.9829248 0.92821741
18.480991 0.24420898 -1.9829199 0.9283424
18.447691 0.21310547 -1.982915 0.92846674
18.414476 0.18212402 -1.9829102 0.9285906
18.381411 0.15125488 -1.9829053 0.92871374
18.348442 0.12049316 -1.9829005 0.92883641
18.315561 0.089829102 -1.9828956 0.92895848
18.282778 0.059262693 -1.9828908 0.92908007
18.250113 0.028813476 -1.982886 0.92920101
18.217543 -0.0015380859 -1.9828813 0.92932147
18.185093 -0.031782225 -1.9828764 0.92944127
18.152719 -0.061938476 -1.9828717 0.92956066
18.12044 -0.091972657 -1.9828669 0.92967951
18.088282 -0.12190918 -1.9828622 0.92979777
18.056231 -0.15175292 -1.9828575 0.92991543
18.024267 -0.18149902 -1.9828527 0.93003261
17.992401 -0.21112792 -1.982848 0.9301492
17.96063 -0.24067871 -1.9828434 0.93026537
17.928949 -0.27013183 -1.9828387 0.93038094
17.897383 -0.29946288 -1.9828341 0.93049598
17.865889 -0.32872558 -1.9828295 0.9306106
17.834517 -0.3578662 -1.9828248 0.93072456
17.803217 -0.38691893 -1.9828203 0.93083811
17.77202 -0.41588867 -1.9828155 0.93095112
17.740898 -0.44476074 -1.982811 0.93106371
17.709887 -0.47353026 -1.9828063 0.93117565
17.678968 -0.50222164 -1.9828018 0.93128717
17.648119 -0.53080565 -1.9827974 0.93139821
17.617382 -0.55928707 -1.9827927 0.93150872
17.586733 -0.58770019 -1.9827882 0.93161875
17.556162 -0.61600584 -1.9827837 0.9317283
17.525698 -0.64422852 -1.9827791 0.93183726
17.495312 -0.67236328 -1.9827746 0.93194586
17.46501 -0.70039546 -1.9827702 0.93205392
17.434799 -0.72835934 -1.9827658 0.93216151
17.404663 -0.75621581 -1.9827614 0.93226868
17.374624 -0.78399414 -1.9827567 0.93237531
17.344658 -0.81167477 -1.9827523 0.93248153
17.31481 -0.83928221 -1.9827479 0.93258721
17.285 -0.86678708 -1.9827435 0.93269253
17.255293 -0.89422363 -1.9827391 0.93279731
17.225677 -0.92156738 -1.9827348 0.93290162
17.196152 -0.94881833 -1.9827304 0.93300545
17.166704 -0.97599119 -1.982726 0.93310881
17.13731 -1.0030811 -1.9827217 0.93321186
17.108023 -1.0300976 -1.9827173 0.93331432
17.078808 -1.0570117 -1.982713 0.93341637
17.049664 -1.0838476 -1.9827086 0.93351805
17.020611 -1.1106104 -1.9827043 0.9336192
16.991631 -1.1372753 -1.9827 0.93371993
16.962738 -1.1638769 -1.9826957 0.93382025
16.933907 -1.1903857 -1.9826914 0.93392015
16.90518 -1.2168164 -1.9826872 0.93401951
16.876524 -1.2431836 -1.9826829 0.93411845
16.8479 -1.2694433 -1.9826787 0.93421715
16.819384 -1.2956592 -1.9826744 0.93431532
16.790953 -1.3217578 -1.9826701 0.93441302
16.762598 -1.3477979 -1.9826658 0.93451023
16.734291 -1.3737597 -1.9826617 0.93460721
16.706068 -1.3996435 -1.9826574 0.93470365
16.677916 -1.4254491 -1.9826533 0.93479979
16.649862 -1.4511768 -1.9826491 0.93489534
16.621864 -1.4768311 -1.9826449 0.93499058
16.593941 -1.502417 -1.9826406 0.93508536
16.566088 -1.5279346 -1.9826366 0.93517977
16.538296 -1.5533496 -1.9826324 0.93527383
16.510576 -1.5787109 -1.9826282 0.93536747
16.482939 -1.6039795 -1.9826242 0.93546063
16.455357 -1.6291894 -1.98262 0.93555349
16.42786 -1.6543261 -1.9826159 0.93564588
16.400425 -1.6793798 -1.9826118 0.93573791
16.373056 -1.7043749 -1.9826077 0.93582952
16.345747 -1.7292968 -1.9826035 0.93592077
16.318529 -1.7541406 -1.9825995 0.93601161
16.291363 -1.778916 -1.9825954 0.93610209
16.264248 -1.8036181 -1.9825914 0.93619221
16.237211 -1.8282471 -1.9825872 0.93628192
16.10622 -1.8409326 -1.9698592 0.93676639
15.886132 -1.8428417 -1.9461662 0.93758994
15.68122 -1.845791 -1.9242506 0.93835664
15.505532 -1.8515625 -1.9058462 0.93901271
15.333667 -1.8572118 -1.8878455 0.93965483
15.238422 -1.8716846 -1.8792225 0.940005
15.213232 -1.8945751 -1.8792187 0.9400878
15.188081 -1.917412 -1.8792149 0.94017035
15.163027 -1.9401807 -1.8792111 0.94025242
15.137998 -1.962876 -1.8792074 0.94033426
15.113042 -1.9855224 -1.8792036 0.94041574
15.088144 -2.0081005 -1.8792 0.9404968
15.134389 -2.040205 -1.8880662 0.94030571
15.038506 -2.053076 -1.8791925 0.94065809
15.013779 -2.0754638 -1.8791887 0.9407382
14.989111 -2.0978026 -1.879185 0.94081795
14.964497 -2.1200683 -1.8791811 0.94089735
14.939946 -2.1422851 -1.8791775 0.94097644
14.915439 -2.1644335 -1.8791739 0.94105524
14.891006 -2.1865184 -1.8791702 0.94113362
14.866596 -2.2085497 -1.8791664 0.94121182
14.84227 -2.2305176 -1.8791627 0.94128954
14.817964 -2.2524364 -1.8791591 0.94136709
14.793735 -2.274287 -1.8791554 0.94144428
14.76957 -2.2960839 -1.8791517 0.94152105
14.745454 -2.3178174 -1.879148 0.94159752
14.721396 -2.3395019 -1.8791444 0.9416737
14.697377 -2.3611279 -1.8791409 0.94174957
14.673408 -2.3826854 -1.8791373 0.94182521
14.649507 -2.4042041 -1.8791336 0.94190037
14.625644 -2.4256494 -1.8791299 0.94197536
14.60183 -2.4470458 -1.8791262 0.94205004
14.578071 -2.4683886 -1.8791227 0.94212437
14.554365 -2.4896631 -1.879119 0.9421984
14.530723 -2.5108936 -1.8791156 0.94227201
14.507119 -2.5320604 -1.8791119 0.94234544
14.483574 -2.5531883 -1.8791084 0.94241852
14.460044 -2.5742481 -1.8791047 0.94249141
14.436606 -2.5952539 -1.8791012 0.94256389
14.413203 -2.6162109 -1.8790976 0.94263607
14.389838 -2.6371143 -1.879094 0.94270802
14.366538 -2.657959 -1.8790905 0.9427796
14.343271 -2.67875 -1.8790869 0.94285095
14.320048 -2.6994922 -1.8790834 0.942922
14.296885 -2.7201805 -1.8790798 0.94299275
14.273769 -2.7408154 -1.8790764 0.9430632
14.250698 -2.7614014 -1.8790728 0.94313335
14.22768 -2.7819383 -1.8790693 0.94320321
14.204697 -2.802412 -1.8790659 0.94327283
14.181763 -2.8228416 -1.8790623 0.94334215
14.158872 -2.8432128 -1.8790588 0.94341123
14.13603 -2.8635547 -1.8790553 0.94347996
14.113247 -2.8838134 -1.8790518 0.94354838
14.090493 -2.904043 -1.8790482 0.94361657
14.067798 -2.9242187 -1.8790448 0.94368446
14.045122 -2.9443359 -1.8790414 0.94375217
14.0225 -2.9644139 -1.8790379 0.94381958
13.999946 -2.9844432 -1.8790344 0.94388658
13.977417 -3.0044141 -1.8790311 0.94395339
13.954926 -3.0243409 -1.8790275 0.94401997
13.932485 -3.0442138 -1.879024 0.94408625
13.910083 -3.0640478 -1.8790207 0.94415224
13.887724 -3.083828 -1.8790171 0.94421798
13.865419 -3.1035595 -1.8790138 0.94428343
13.843159 -3.1232469 -1.8790103 0.94434863
13.820918 -3.1428857 -1.8790069 0.9444136
13.79873 -3.1624706 -1.8790034 0.94447827
13.776587 -3.1820214 -1.8790001 0.94454271
13.754482 -3.2015088 -1.8789967 0.94460684
13.732417 -3.2209618 -1.8789932 0.94467074
13.710385 -3.2403612 -1.8789898 0.94473445
13.688398 -3.2597117 -1.8789865 0.94479781
13.666465 -3.2790234 -1.8789829 0.94486094
13.64456 -3.2982957 -1.8789796 0.94492382
13.6227 -3.3175049 -1.8789762 0.9449864
13.600874 -3.3366797 -1.8789729 0.94504881
13.579106 -3.3558104 -1.8789696 0.94511086
13.557353 -3.3748975 -1.8789662 0.94517273
13.53564 -3.3939354 -1.8789629 0.94523442
13.513984 -3.4129248 -1.8789594 0.94529575
13.492333 -3.4318798 -1.8789561 0.94535691
13.470752 -3.4507713 -1.8789527 0.94541776
13.449199 -3.4696386 -1.8789494 0.94547844
13.427675 -3.4884472 -1.8789461 0.94553882
13.4062 -3.5072265 -1.8789427 0.94559896
13.38477 -3.5259569 -1.8789393 0.94565886
13.363349 -3.5446434 -1.8789359 0.94571859
13.341991 -3.5632908 -1.8789327 0.94577795
13.320649 -3.5818846 -1.8789294 0.9458372
13.29936 -3.6004345 -1.878926 0.94589615
13.278095 -3.6189549 -1.8789227 0.94595486
13.256885 -3.6374266 -1.8789195 0.94601333
13.235683 -3.6558592 -1.8789161 0.94607162
13.214545 -3.6742527 -1.8789128 0.94612956
13.193422 -3.6926024 -1.8789096 0.94618738
13.172348 -3.7109032 -1.8789062 0.9462449
13.151308 -3.7291648 -1.878903 0.94630218
13.130283 -3.7473924 -1.8788997 0.94635934
13.109311 -3.7655761 -1.8788965 0.9464162
13.088374 -3.783711 -1.8788931 0.94647276
13.067461 -3.8018064 -1.8788899 0.94652921
13.046587 -3.8198729 -1.8788866 0.94658542
13.025752 -3.8378954 -1.8788834 0.94664133
13.004941 -3.8558788 -1.8788799 0.94669706
12.984159 -3.8738134 -1.8788768 0.94675261
12.963423 -3.8917186 -1.8788736 0.94680786
12.94271 -3.9095702 -1.8788702 0.94686294
12.922036 -3.9273925 -1.878867 0.94691783
12.901386 -3.9451807 -1.8788638 0.94697243
12.880776 -3.9629295 -1.8788606 0.94702685
12.860205 -3.9806249 -1.8788573 0.94708103
12.839653 -3.998286 -1.878854 0.94713503
12.81914 -4.0159225 -1.8788508 0.94718874
12.798672 -4.0335107 -1.8788476 0.94724226
12.778217 -4.0510693 -1.8788444 0.94729561
12.757783 -4.0685792 -1.8788412 0.94734871
12.737392 -4.0860496 -1.8788378 0.94740164
12.717026 -4.1034861 -1.8788346 0.94745439
12.696704 -4.1208887 -1.8788314 0.94750684
12.676401 -4.138247 -1.8788283 0.94755912
12.656137 -4.1555762 -1.8788251 0.94761115
12.635908 -4.1728663 -1.8788218 0.94766301
12.615684 -4.1901121 -1.8788186 0.94771469
12.595512 -4.2073193 -1.8788154 0.94776613
12.575366 -4.2245116 -1.8788122 0.94781733
12.555249 -4.2416453 -1.8788092 0.94786835
12.535141 -4.2587547 -1.878806 0.94791925
12.515093 -4.2758203 -1.8788028 0.94796985
12.495058 -4.2928562 -1.8787996 0.94802028
12.475043 -4.3098483 -1.8787963 0.94807053
12.455078 -4.3268161 -1.8787931 0.94812053
12.435132 -4.34374 -1.8787899 0.94817036
12.4152 -4.3606248 -1.8787869 0.94822001
12.395312 -4.3774853 -1.8787837 0.94826943
12.375454 -4.3943019 -1.8787805 0.9483186
12.355615 -4.4110937 -1.8787773 0.94836766
12.335815 -4.4278464 -1.8787742 0.94841647
12.31603 -4.4445558 -1.8787711 0.94846511
12.296269 -4.4612451 -1.8787678 0.94851357
12.276543 -4.4778905 -1.8787647 0.94856185
12.256845 -4.4944968 -1.8787615 0.94860989
12.237178 -4.5110841 -1.8787583 0.94865775
12.217519 -4.5276318 -1.8787553 0.94870543
12.197895 -4.5441356 -1.8787521 0.94875294
12.178315 -4.5606103 -1.878749 0.94880021
12.158754 -4.5770602 -1.8787458 0.94884723
12.139199 -4.5934763 -1.8787428 0.9488942
12.119678 -4.6098533 -1.8787396 0.94894093
12.10019 -4.6261964 -1.8787365 0.94898748
12.080723 -4.6425095 -1.8787333 0.94903386
12.061279 -4.6587839 -1.8787303 0.94907999
12.04187 -4.675034 -1.8787271 0.94912595
12.022485 -4.6912451 -1.878724 0.94917172
12.003119 -4.7074218 -1.8787208 0.94921738
11.983779 -4.7235694 -1.8787178 0.9492628
11.964462 -4.739697 -1.8787146 0.94930804
11.94517 -4.7557712 -1.8787115 0.9493531
11.925899 -4.7718263 -1.8787085 0.94939804
11.906655 -4.7878513 -1.8787053 0.94944268
11.887441 -4.8038473 -1.8787022 0.94948721
11.868247 -4.8197947 -1.8786992 0.94953156
11.849067 -4.8357272 -1.878696 0.94957572
11.829922 -4.8516111 -1.8786929 0.94961971
11.810786 -4.867485 -1.8786899 0.94966358
11.791684 -4.8833203 -1.8786868 0.94970721
11.772607 -4.8991113 -1.8786836 0.94975066
11.753564 -4.9148827 -1.8786806 0.94979388
11.734521 -4.930625 -1.8786775 0.94983703
11.715508 -4.9463425 -1.8786743 0.94987994
11.696518 -4.9620066 -1.8786712 0.94992274
11.677553 -4.9776659 -1.8786682 0.9499653
11.658613 -4.9932761 -1.8786651 0.95000774
11.639702 -5.008872 -1.8786621 0.95004994
11.620781 -5.0244188 -1.878659 0.95009208
11.601909 -5.0399609 -1.8786559 0.95013398
11.583056 -5.055459 -1.8786528 0.9501757
11.564223 -5.0709276 -1.8786497 0.95021725
11.54541 -5.0863671 -1.8786466 0.95025861
11.526621 -5.1017723 -1.8786436 0.95029986
11.507841 -5.1171579 -1.8786405 0.95034093
11.489101 -5.1325097 -1.8786376 0.95038182
11.470376 -5.1478271 -1.8786345 0.95042253
11.45167 -5.1631298 -1.8786314 0.95046306
11.432968 -5.1783886 -1.8786284 0.95050353
11.414316 -5.1936278 -1.8786253 0.9505437
11.395669 -5.208828 -1.8786223 0.95058376
11.377036 -5.2240133 -1.8786192 0.95062369
11.358433 -5.2391696 -1.8786161 0.95066345
11.339853 -5.254292 -1.8786131 0.95070297
11.321284 -5.2693849 -1.87861 0.95074242
11.30273 -5.2844434 -1.878607 0.9507817
11.284208 -5.2994919 -1.8786039 0.95082074
11.265713 -5.3144922 -1.8786008 0.95085967
11.247216 -5.3294821 -1.8785979 0.95089847
11.22874 -5.3444333 -1.8785948 0.95093715
11.210298 -5.3593602 -1.8785918 0.95097554
11.19186 -5.3742676 -1.8785887 0.95101386
11.173457 -5.3891358 -1.8785856 0.95105201
11.155068 -5.4039841 -1.8785826 0.95108998
11.136699 -5.4188037 -1.8785795 0.95112777
11.11834 -5.4335938 -1.8785766 0.9511655
11.100015 -5.4483595 -1.8785735 0.95120293
11.081679 -5.4630909 -1.8785706 0.95124036
11.063389 -5.4778075 -1.8785675 0.95127755
11.045097 -5.492485 -1.8785644 0.95131463
11.026846 -5.5071435 -1.8785614 0.95135152
11.008608 -5.5217819 -1.8785583 0.95138824
10.990376 -5.5363817 -1.8785554 0.95142484
10.972158 -5.550962 -1.8785523 0.95146132
10.95397 -5.5655222 -1.8785493 0.95149755
10.935796 -5.5800343 -1.8785462 0.95153373
10.917637 -5.5945358 -1.8785433 0.95156974
10.899502 -5.6090136 -1.8785403 0.9516055
10.881362 -5.6234617 -1.8785373 0.95164126
10.863266 -5.6378808 -1.8785342 0.95167679
10.845176 -5.6522899 -1.8785311 0.95171213
10.827105 -5.6666551 -1.8785281 0.95174742
10.809067 -5.681006 -1.8785251 0.95178246
10.791011 -5.6953173 -1.8785222 0.95181745
10.772988 -5.709609 -1.8785191 0.95185226
10.754985 -5.7238817 -1.8785162 0.95188689
10.736992 -5.7381296 -1.8785131 0.9519214
10.719023 -5.7523532 -1.8785101 0.9519558
10.701064 -5.7665477 -1.878507 0.95199001
10.683115 -5.7807226 -1.8785042 0.9520241
10.665185 -5.794868 -1.8785011 0.95205802
10.64728 -5.8089795 -1.8784981 0.95209181
10.629399 -5.8230906 -1.8784951 0.95212537
10.611518 -5.837153 -1.8784921 0.95215893
10.593652 -5.8512058 -1.878489 0.95219231
10.575796 -5.8652291 -1.8784862 0.95222551
10.557963 -5.8792286 -1.8784831 0.95225859
10.540152 -5.8932028 -1.8784801 0.95229149
10.522344 -5.9071484 -1.8784771 0.95232433
13.94269 -7.8590479 -2.4933062 0.93726188
13.913315 -7.8742332 -2.4922662 0.93732953
13.884013 -7.8893795 -2.4912298 0.93739688
13.854741 -7.9044871 -2.4901972 0.93746406
13.825537 -7.9195557 -2.4891655 0.93753088
13.796382 -7.9345946 -2.4881341 0.93759739
13.76728 -7.9495797 -2.4871078 0.93766373
13.738222 -7.9645362 -2.4860873 0.93772978
13.709224 -7.9794626 -2.4850643 0.93779546
13.680283 -7.9943309 -2.4840477 0.93786097
13.651377 -8.0091791 -2.483031 0.93792617
13.622543 -8.0239935 -2.4820201 0.93799108
13.59375 -8.0387592 -2.4810085 0.93805575
13.564995 -8.0534906 -2.4800014 0.93812025
13.536313 -8.0681934 -2.4789934 0.93818432
13.507675 -8.0828466 -2.4779925 0.93824822
13.479076 -8.0974655 -2.4769893 0.93831187
13.450532 -8.1120605 -2.475992 0.93837523
13.422046 -8.1266108 -2.4749951 0.9384383
13.393603 -8.1411276 -2.474004 0.93850112
13.365191 -8.1556101 -2.4730117 0.93856376
13.336855 -8.1700487 -2.4720244 0.93862605
13.308544 -8.1844673 -2.4710371 0.93868816
13.280313 -8.1988373 -2.4700534 0.93874991
13.252099 -8.2131786 -2.4690721 0.93881148
13.22394 -8.2274904 -2.4680934 0.93887281
13.195845 -8.2417622 -2.4671159 0.93893379
13.167778 -8.255991 -2.4661446 0.93899465
13.13976 -8.270195 -2.4651706 0.9390552
13.111792 -8.2843552 -2.4642041 0.93911552
13.083877 -8.2984858 -2.4632363 0.93917555
13.056001 -8.3125877 -2.4622736 0.93923533
13.028149 -8.3266506 -2.4613094 0.93929499
13.000381 -8.3406734 -2.4603479 0.93935424
12.972651 -8.3546772 -2.4593899 0.93941325
12.944936 -8.3686428 -2.4584367 0.93947214
12.915898 -8.38167 -2.4572136 0.93953705
12.883373 -8.3923531 -2.4553273 0.93961775
12.850952 -8.4030218 -2.4534497 0.93969798
12.818583 -8.413662 -2.4515707 0.93977797
12.786304 -8.4242525 -2.4497039 0.9398576
12.754107 -8.4348049 -2.4478395 0.93993688
12.721982 -8.4453363 -2.4459767 0.94001579
12.689926 -8.4558153 -2.4441235 0.94009447
12.657959 -8.466279 -2.4422765 0.94017273
12.626064 -8.4767036 -2.440433 0.94025064
12.594243 -8.4870949 -2.4385931 0.94032824
12.562485 -8.4974508 -2.4367609 0.94040561
12.530825 -8.5077581 -2.434937 0.94048256
12.499213 -8.5180511 -2.4331131 0.94055921
12.46769 -8.5283203 -2.4312944 0.9406355
12.436231 -8.5385351 -2.4294791 0.9407115
12.404848 -8.5487356 -2.4276748 0.9407872
12.373515 -8.558877 -2.4258718 0.94086266
12.342295 -8.5690088 -2.4240725 0.94093764
12.311123 -8.5790968 -2.4222817 0.94101238
12.280029 -8.58916 -2.4204934 0.94108683
12.248994 -8.599184 -2.4187136 0.94116098
12.218022 -8.609189 -2.4169338 0.94123477
12.187134 -8.6191454 -2.415164 0.94130832
12.156323 -8.6290817 -2.4133928 0.94138145
12.126357 -8.6395502 -2.4117904 0.94145066
12.098354 -8.6513424 -2.4105682 0.94151062
12.070415 -8.6630955 -2.4093451 0.9415704
12.042495 -8.6748238 -2.4081292 0.94162995
12.014644 -8.686533 -2.4069133 0.94168913
11.986835 -8.6981983 -2.4057038 0.9417482
11.959082 -8.7098341 -2.4044914 0.94180691
11.931362 -8.7214451 -2.4032891 0.9418655
11.903696 -8.7330275 -2.4020879 0.9419238
11.876079 -8.7445745 -2.4008842 0.94198179
11.84852 -8.7561035 -2.399688 0.94203955
11.820996 -8.7675877 -2.3984954 0.94209713
11.79351 -8.779048 -2.3973076 0.94215453
11.766088 -8.790473 -2.3961186 0.94221157
11.73871 -8.8018942 -2.3949311 0.94226837
11.711377 -8.813262 -2.3937492 0.942325
11.684087 -8.8246145 -2.3925714 0.94238138
11.656845 -8.8359375 -2.3913925 0.94243747
11.629648 -8.8472214 -2.3902194 0.94249338
11.602485 -8.8584814 -2.3890512 0.94254911
11.575371 -8.8697166 -2.3878832 0.94260454
11.548325 -8.8809271 -2.3867164 0.94265968
11.521294 -8.8921137 -2.3855567 0.94271463
11.494336 -8.9032612 -2.384397 0.94276935
11.467397 -8.9143896 -2.3832412 0.94282389
11.440508 -8.925478 -2.3820865 0.94287819
11.415625 -8.9380808 -2.3813441 0.94292271
11.391362 -8.9511232 -2.3807237 0.9429642
11.367124 -8.9641457 -2.3801098 0.94300544
11.34293 -8.9771338 -2.3794982 0.94304651
11.318735 -8.9901075 -2.3788829 0.94308746
11.29459 -9.0030518 -2.3782737 0.94312817
11.270459 -9.015976 -2.3776619 0.94316876
11.246372 -9.0288572 -2.3770566 0.94320911
11.22229 -9.041728 -2.376451 0.94324929
11.198256 -9.0545797 -2.3758469 0.94328922
11.174233 -9.0673971 -2.3752401 0.94332904
11.150244 -9.0801954 -2.3746395 0.94336867
11.126284 -9.0929689 -2.3740401 0.94340813
11.102348 -9.1057177 -2.3734393 0.94344735
11.078418 -9.1184521 -2.3728375 0.94348645
11.054536 -9.1311474 -2.3722432 0.94352537
11.030668 -9.1438284 -2.3716462 0.94356412
11.006836 -9.1564846 -2.3710554 0.94360262
10.983017 -9.1691017 -2.3704646 0.94364107
10.959243 -9.1817236 -2.3698688 0.94367921
10.935473 -9.1943064 -2.3692842 0.94371724
10.911723 -9.2068653 -2.3686934 0.94375515
10.888002 -9.2194042 -2.3681073 0.94379282
10.864321 -9.2319336 -2.3675203 0.94383025
10.840654 -9.2444143 -2.3669405 0.94386756
10.817021 -9.2568846 -2.3663547 0.9439047
10.793393 -9.269331 -2.3657737 0.94394171
10.76979 -9.2817478 -2.3651974 0.94397855
10.746235 -9.2941456 -2.3646164 0.94401515
10.72268 -9.3065329 -2.3640404 0.94405162
10.699155 -9.3188868 -2.3634629 0.94408786
10.675659 -9.3312206 -2.3628867 0.94412398
10.652178 -9.3435354 -2.3623168 0.94415992
10.62874 -9.3558197 -2.3617456 0.94419569
10.605288 -9.3680859 -2.3611743 0.94423133
10.581889 -9.3803272 -2.3606067 0.94426674
10.5585 -9.3925581 -2.3600354 0.94430202
10.535131 -9.4047508 -2.3594704 0.94433713
10.511782 -9.4169235 -2.3589077 0.94437212
10.488466 -9.4290771 -2.3583426 0.94440687
10.465185 -9.4412251 -2.35778 0.94444138
10.441904 -9.45333 -2.3572185 0.94447583
10.418637 -9.4654245 -2.3566582 0.94451016
10.395405 -9.4774904 -2.3561015 0.94454426
10.372211 -9.4895506 -2.3555439 0.94457811
10.349009 -9.5015774 -2.3549886 0.94461191
10.325845 -9.5135784 -2.3544307 0.94464552
10.30271 -9.5255709 -2.3538792 0.9446789
10.279585 -9.5375195 -2.3533275 0.94471222
10.256479 -9.5494776 -2.3527758 0.9447453
10.233383 -9.5613966 -2.3522241 0.94477832
10.210318 -9.5733004 -2.3516786 0.94481111
10.18727 -9.5851755 -2.3511319 0.94484371
10.164263 -9.5970411 -2.3505838 0.94487613
10.141245 -9.6088715 -2.3500421 0.9449085
10.118266 -9.6207075 -2.3494966 0.94494063
10.094155 -9.6314058 -2.3486905 0.94497871
10.06791 -9.6400099 -2.3473756 0.94502807
10.039731 -9.6467133 -2.3456061 0.94508767
10.010527 -9.652339 -2.3435907 0.94515288
9.981391 -9.657959 -2.3415775 0.94521767
9.9523287 -9.6635542 -2.3395731 0.94528222
9.9233103 -9.6691303 -2.3375723 0.94534653
9.8943605 -9.6746874 -2.3355789 0.94541061
9.8654833 -9.680234 -2.3335929 0.94547427
9.8366652 -9.6857567 -2.3316078 0.94553775
9.8079052 -9.6912794 -2.329633 0.94560087
9.779233 -9.6967621 -2.3276627 0.94566375
9.7506056 -9.7022314 -2.3256986 0.94572634
9.7220306 -9.707695 -2.3237433 0.94578868
9.6935444 -9.71313 -2.3217864 0.94585073
9.6650972 -9.718545 -2.3198421 0.94591254
9.636714 -9.7239599 -2.3178964 0.94597405
9.6084032 -9.7293406 -2.3159592 0.94603527
9.5801516 -9.7347116 -2.3140333 0.94609624
9.5519476 -9.7400732 -2.3121033 0.94615692
9.5238085 -9.7454052 -2.3101871 0.94621736
9.4957418 -9.7507277 -2.3082707 0.9462775
9.4677191 -9.7560301 -2.3063641 0.9463374
9.4397554 -9.7613134 -2.3044612 0.94639707
9.41187 -9.766592 -2.3025644 0.94645637
9.3840132 -9.7718458 -2.300674 0.94651556
9.356245 -9.7770948 -2.2987821 0.94657433
9.3285208 -9.7823 -2.2969048 0.94663298
9.3008547 -9.7875042 -2.2950277 0.94669127
9.2732325 -9.7927094 -2.2931554 0.94674933
9.2456884 -9.7978859 -2.2912869 0.94680715
9.2181787 -9.8030367 -2.2894304 0.94686472
9.1907368 -9.8081789 -2.2875779 0.94692206
9.1633492 -9.8133001 -2.2857251 0.94697911
9.1360254 -9.8184223 -2.2838821 0.94703585
9.1087399 -9.8235102 -2.2820394 0.94709247
9.0815277 -9.8285885 -2.2802062 0.94714874
9.0543556 -9.8336573 -2.278378 0.94720483
9.0272512 -9.8387108 -2.2765548 0.94726056
9.000185 -9.8437405 -2.2747362 0.94731617
8.9731884 -9.8487597 -2.272918 0.94737148
8.9462252 -9.8537693 -2.2711093 0.94742656
8.9193306 -9.8587446 -2.2693055 0.94748139
8.8924952 -9.8637152 -2.2675066 0.94753593
8.8656883 -9.8686762 -2.2657127 0.94759029
8.8389597 -9.8736229 -2.2639236 0.94764435
8.8122702 -9.8785448 -2.2621396 0.94769824
8.7856398 -9.883462 -2.2603605 0.94775182
8.7590427 -9.8883591 -2.2585862 0.94780523
8.7325144 -9.8932467 -2.2568166 0.94785839
8.7060299 -9.8981199 -2.2550471 0.94791126
8.679595 -9.9029732 -2.2532876 0.94796395
8.6532125 -9.9078169 -2.2515328 0.94801641
8.6268654 -9.9126463 -2.2497828 0.94806862
8.6005907 -9.9174557 -2.2480378 0.94812059
8.5743647 -9.9222507 -2.2462976 0.94817227
8.5481691 -9.9270363 -2.2445576 0.94822383
8.5220404 -9.9318018 -2.2428272 0.94827509
8.4959564 -9.9365673 -2.241097 0.94832611
8.4699116 -9.9412937 -2.2393765 0.94837701
8.4439211 -9.9460297 -2.2376561 0.94842756
8.4179926 -9.9507275 -2.2359452 0.94847792
8.3920851 -9.9554243 -2.2342346 0.94852811
