# .PCD v0.7 - Point Cloud Data file format
VERSION 0.7
FIELDS x y z intensity
SIZE 4 4 4 4
TYPE F F F F
COUNT 1 1 1 1
WIDTH 1125
HEIGHT 1
VIEWPOINT 0 0 0 1 0 0 0
POINTS 1125
DATA ascii
-7.7272754 -19.607422 2.3687949 0.91866714
-7.7591553 -19.610815 2.3744667 0.91861051
-7.7910643 -19.614208 2.3801482 0.91855377
-7.7796383 -19.508736 2.3725967 0.91893017
-7.762578 -19.390043 2.3633814 0.91935974
-7.7457027 -19.272661 2.354264 0.91978467
-7.7290134 -19.156532 2.3452463 0.92020512
-7.9512596 -19.63125 2.4086628 0.91826653
-7.9680858 -19.596952 2.4097502 0.91835898
-8.0126858 -19.630907 2.4192307 0.91817886
-8.0478611 -19.641527 2.4258595 0.91809165
-8.0801458 -19.644966 2.4316072 0.91803288
-8.1124611 -19.648407 2.4373653 0.917974
-8.1448193 -19.65185 2.4431205 0.91791487
-8.177207 -19.655293 2.4488933 0.9178555
-8.2096577 -19.658749 2.4546726 0.9177959
-8.2421484 -19.662212 2.4604578 0.91773611
-8.2746677 -19.665663 2.4662528 0.91767615
-8.3072414 -19.669136 2.4720507 0.91761589
-8.3398438 -19.672602 2.4778612 0.91755545
-8.3724947 -19.676073 2.4836793 0.91749483
-8.4051952 -19.679556 2.4895036 0.91743392
-8.4379292 -19.683041 2.4953349 0.91737288
-8.4707127 -19.686527 2.5011735 0.91731155
-8.3442621 -19.321186 2.4600654 0.91873527
-8.3594532 -19.285259 2.4607875 0.91883332
-8.3745995 -19.249418 2.4615107 0.91893101
-8.4686031 -19.394394 2.4853873 0.91829866
-8.4617186 -19.308002 2.4796381 0.91860002
-8.4548922 -19.222315 2.4739366 0.91889882
-8.4481249 -19.137339 2.4682803 0.91919512
-8.4413967 -19.052979 2.4626701 0.91948926
-8.6388178 -19.428251 2.5165532 0.91792196
-8.6455956 -19.373583 2.514838 0.91809475
-8.6523533 -19.319174 2.5131321 0.91826659
-8.6590719 -19.265009 2.5114331 0.91843754
-8.6657619 -19.211094 2.5097435 0.91860765
-8.6724167 -19.157431 2.5080609 0.91877681
-8.6790428 -19.103994 2.5063865 0.91894513
-8.6856394 -19.050806 2.50472 0.91911262
-8.6922064 -18.997856 2.5030601 0.91927922
-8.9644432 -19.523861 2.577816 0.91708916
-8.9862013 -19.502436 2.5804424 0.91712582
-9.007905 -19.481039 2.583065 0.9171623
-9.0762844 -19.560219 2.5990465 0.916789
-9.1010256 -19.545122 2.602525 0.91679931
-9.1257515 -19.530033 2.6059961 0.91680956
-9.1504879 -19.51495 2.6094713 0.91681957
-9.1752052 -19.499868 2.6129456 0.91682947
-9.1998825 -19.484804 2.6164179 0.91683924
-9.6209173 -20.306231 2.7324493 0.91343552
-9.6413765 -20.279419 2.7345684 0.91349065
-9.718276 -20.371035 2.7526801 0.91306275
-9.7332611 -20.332626 2.7532451 0.91316473
-9.748208 -20.294306 2.7538073 0.91326636
-9.7631197 -20.256088 2.7543657 0.91336751
-9.7779884 -20.217974 2.7549274 0.9134683
-9.8367968 -20.270565 2.767854 0.91319793
-9.8513184 -20.231792 2.7683203 0.91330117
-9.8657961 -20.193144 2.7687836 0.91340393
-9.6879444 -19.76232 2.7153454 0.91511613
-9.6594038 -19.637909 2.7038634 0.91557276
-9.6311321 -19.514736 2.6924841 0.91602498
-9.9233398 -20.039511 2.7706213 0.91381097
-9.9376173 -20.001377 2.7710838 0.91391164
-9.9518747 -19.96332 2.7715387 0.91401201
-9.9500437 -19.893358 2.767534 0.91424394
-9.9802532 -19.887543 2.7724457 0.91421145
-10.140215 -20.139433 2.81336 0.91311622
-10.237236 -20.264975 2.8367381 0.91254121
-10.335576 -20.392221 2.8604283 0.91195863
-10.109087 -19.879761 2.7942932 0.91401601
-10.138456 -19.872108 2.7989628 0.91399026
-10.167847 -19.864449 2.8036401 0.91396433
-10.197246 -19.856787 2.8083141 0.91393828
-10.226669 -19.849131 2.8129895 0.91391206
-10.256099 -19.841455 2.8176715 0.91388571
-10.285527 -19.833794 2.8223505 0.91385913
-10.285224 -19.768955 2.8188841 0.91406995
-10.344434 -19.818441 2.8317206 0.91380566
-9.0329199 -17.249897 2.4697576 0.92449152
-9.0549507 -17.236288 2.4728458 0.92449677
-9.0769825 -17.222685 2.4759374 0.92450184
-9.0990133 -17.209082 2.4790242 0.92450684
-9.1210203 -17.195482 2.48211 0.92451167
-9.1430368 -17.181885 2.4851961 0.92451638
-9.1650295 -17.168304 2.4882791 0.92452097
-9.1870165 -17.154722 2.4913633 0.92452544
-9.2090235 -17.141132 2.4944446 0.92452973
-9.2309866 -17.127563 2.4975247 0.92453396
-9.2529593 -17.113998 2.5006046 0.92453802
-9.2749071 -17.100433 2.5036829 0.92454195
-9.296875 -17.086874 2.5067606 0.92454576
-9.3188181 -17.07332 2.5098391 0.92454946
-8.8560743 -16.174541 2.3825176 0.92832404
-8.8782368 -16.164209 2.3858058 0.92831659
-8.900425 -16.153872 2.3890891 0.92830896
-8.9226074 -16.143539 2.3923764 0.92830127
-8.9447803 -16.133204 2.3956587 0.92829347
-8.9669485 -16.122871 2.3989458 0.92828554
-8.9891262 -16.112534 2.4022315 0.92827743
-9.0112982 -16.102201 2.4055142 0.92826927
-9.0334768 -16.091866 2.4087982 0.92826098
-9.0556545 -16.081533 2.4120858 0.92825252
-9.0778265 -16.071196 2.41537 0.92824399
-9.1000099 -16.06086 2.4186532 0.92823529
-9.1221828 -16.050522 2.421937 0.92822653
-9.1443653 -16.04019 2.4252229 0.92821759
-9.166543 -16.029854 2.4285057 0.92820859
-9.1887255 -16.019512 2.4317927 0.92819947
-9.2109127 -16.009169 2.4350772 0.92819017
-9.2331057 -15.998828 2.4383609 0.92818081
-9.2552729 -15.988496 2.4416447 0.92817128
-9.2774706 -15.978145 2.4449294 0.92816168
-9.2996483 -15.967813 2.4482138 0.92815191
-9.3218451 -15.957456 2.4514966 0.92814207
-9.3440237 -15.947119 2.4547813 0.92813212
-9.36623 -15.936772 2.4580672 0.92812198
-9.3884182 -15.926431 2.4613535 0.92811173
-9.4106054 -15.916088 2.4646354 0.92810142
-9.4328127 -15.905732 2.4679184 0.92809093
-9.4550142 -15.895381 2.4712045 0.92808032
-9.4772072 -15.885043 2.4744914 0.92806959
-9.4994087 -15.874692 2.4777775 0.9280588
-9.5216208 -15.864341 2.4810631 0.92804784
-9.5438185 -15.853984 2.4843471 0.92803681
-9.6082125 -15.913476 2.4986026 0.92772001
-9.6318159 -15.90521 2.5022354 0.92769933
-9.6554298 -15.896943 2.5058744 0.92767853
-9.679038 -15.888672 2.5095088 0.92765754
-9.7541256 -15.9646 2.5264781 0.92726707
-9.7625732 -15.931279 2.5261729 0.92735547
-9.7709913 -15.898051 2.5258663 0.92744356
-9.7793941 -15.864912 2.5255659 0.92753124
-9.7877684 -15.83186 2.5252614 0.92761868
-9.7961226 -15.798906 2.5249596 0.92770565
-9.8044577 -15.766035 2.5246589 0.92779231
-9.8127728 -15.733237 2.5243571 0.92787868
-9.8210592 -15.700527 2.5240548 0.92796475
-10.024219 -15.978613 2.5737994 0.92667729
-10.043036 -15.961992 2.5761638 0.926691
-10.061841 -15.94538 2.5785303 0.92670465
-10.080645 -15.928779 2.5808892 0.92671812
-10.43768 -16.445122 2.6697693 0.92437273
-10.451386 -16.419052 2.6707525 0.9244259
-10.173071 -15.935615 2.5971856 0.92650664
-9.9507809 -15.542392 2.5380521 0.92819399
-10.492397 -16.341108 2.6736932 0.92458403
-9.8559856 -15.305727 2.5091791 0.92912996
-9.8791304 -15.297564 2.5127373 0.92910725
-9.9022799 -15.28939 2.5162919 0.92908442
-9.9254589 -15.281211 2.5198512 0.92906141
-9.9486322 -15.273037 2.5234118 0.92903835
-9.9718208 -15.264849 2.5269732 0.9290151
-9.9950294 -15.256655 2.5305343 0.92899179
-10.018247 -15.248457 2.5341001 0.92896831
-10.041474 -15.240258 2.5376673 0.92894471
-10.064702 -15.232056 2.54123 0.92892098
-10.087954 -15.223847 2.5448003 0.92889714
-10.111206 -15.215639 2.5483696 0.92887318
-10.134478 -15.207417 2.5519385 0.9288491
-10.157763 -15.199199 2.5555131 0.92882484
-10.181045 -15.190976 2.5590837 0.92880052
-10.204346 -15.182744 2.5626562 0.92877603
-10.227652 -15.174501 2.5662329 0.92875147
-10.250986 -15.16626 2.5698113 0.92872673
-10.274326 -15.158008 2.5733862 0.92870188
-10.297675 -15.149765 2.5769696 0.9286769
-10.321035 -15.141513 2.5805528 0.92865175
-10.344409 -15.133246 2.5841351 0.92862654
-10.367793 -15.12498 2.5877161 0.92860121
-10.391181 -15.116709 2.5913 0.92857575
-10.414599 -15.108427 2.5948863 0.92855012
-10.438017 -15.100142 2.598474 0.92852443
-10.461454 -15.09186 2.6020665 0.92849857
-10.484902 -15.083564 2.6056578 0.92847258
-10.508359 -15.075263 2.6092491 0.92844647
-10.531831 -15.066962 2.6128411 0.92842025
-10.555322 -15.058647 2.6164379 0.92839384
-10.578818 -15.050326 2.6200328 0.92836738
-10.602334 -15.042016 2.6236327 0.92834073
-10.625854 -15.033691 2.6272326 0.92831397
-10.649399 -15.025361 2.630836 0.92828709
-10.056445 -14.149619 2.482269 0.93226016
-10.084521 -14.149985 2.4871094 0.93219644
-10.112641 -14.150347 2.4919593 0.93213248
-10.14081 -14.150713 2.4968183 0.93206829
-10.169008 -14.151073 2.5016835 0.93200397
-10.197266 -14.151445 2.5065567 0.93193936
-10.225586 -14.151812 2.5114381 0.93187457
-10.253945 -14.152172 2.5163255 0.93180954
-10.282363 -14.152538 2.5212259 0.93174428
-10.310825 -14.15291 2.5261328 0.93167883
-10.339351 -14.153281 2.5310493 0.93161309
-10.36791 -14.153637 2.5359697 0.93154722
-10.396528 -14.154014 2.5409043 0.93148106
-10.425195 -14.154375 2.5458415 0.93141466
-10.37228 -14.044194 2.5308685 0.93186557
-10.393286 -14.034389 2.5339513 0.93184692
-10.414307 -14.024565 2.5370307 0.9318282
-10.435327 -14.014746 2.5401108 0.93180937
-10.456362 -14.004917 2.5431914 0.93179035
-10.477412 -13.995088 2.546277 0.93177128
-10.498457 -13.985258 2.54936 0.93175209
-10.444233 -13.87541 2.5341773 0.93220431
-10.474799 -13.878423 2.5395784 0.93212467
-10.505439 -13.881445 2.5449927 0.93204468
-10.536138 -13.884472 2.550416 0.93196446
-10.566923 -13.887514 2.5558567 0.93188387
-10.486172 -13.744291 2.5343332 0.93249637
-10.519023 -13.750258 2.5402832 0.93240207
-10.551972 -13.756245 2.546248 0.93230736
-10.584995 -13.762246 2.5522301 0.93221235
-10.61811 -13.768267 2.5582252 0.93211699
-10.651313 -13.774306 2.5642364 0.9320212
-10.684628 -13.780356 2.5702648 0.93192506
-10.718008 -13.786426 2.5763085 0.93182862
-10.751489 -13.792509 2.5823662 0.93173182
-10.785069 -13.798613 2.5884447 0.93163455
-10.81874 -13.804731 2.5945337 0.93153697
-10.852505 -13.810869 2.6006463 0.93143904
-10.878828 -13.807456 2.6049645 0.93138659
-10.900043 -13.797534 2.6080604 0.93136513
-10.921269 -13.787602 2.6111553 0.93134362
-10.942514 -13.777666 2.6142523 0.93132198
-10.963755 -13.767729 2.6173515 0.93130022
-10.985014 -13.757788 2.6204505 0.93127835
-11.006279 -13.747837 2.6235516 0.93125635
-11.027554 -13.737876 2.6266491 0.93123424
-11.048847 -13.72792 2.6297526 0.93121201
-11.070136 -13.717954 2.6328516 0.93118966
-11.09144 -13.707983 2.6359558 0.93116719
-11.112763 -13.698003 2.63906 0.9311446
-11.134091 -13.688017 2.6421618 0.93112189
-11.15543 -13.678037 2.6452708 0.93109906
-11.176772 -13.668036 2.6483734 0.93107617
-11.198139 -13.658037 2.6514819 0.93105304
-11.219506 -13.648037 2.6545892 0.93102986
-11.240893 -13.638018 2.6576965 0.93100661
-11.262275 -13.628002 2.6608031 0.93098319
-11.283681 -13.617983 2.6639154 0.93095964
-11.584135 -13.943843 2.732857 0.92929304
-11.620102 -13.95038 2.7393482 0.9291864
-11.656181 -13.956938 2.7458599 0.92907935
-11.692353 -13.963511 2.7523875 0.92897195
-11.728633 -13.970107 2.7589331 0.92886412
-11.800176 -14.018461 2.7737615 0.92855078
-12.254863 -14.520483 2.8785667 0.92601025
-12.251454 -14.478452 2.8757019 0.92613745
-12.248056 -14.436558 2.8728447 0.92626417
-12.244678 -14.394834 2.8699975 0.92639023
-12.241303 -14.353251 2.8671629 0.92651582
-12.237944 -14.311826 2.8643353 0.92664081
-12.234599 -14.270561 2.861516 0.92676526
-12.173706 -14.16246 2.8452539 0.9272204
-12.217343 -14.176176 2.8534343 0.92707336
-12.224648 -14.147666 2.8531237 0.92713517
-12.221357 -14.106987 2.8503461 0.92725736
-12.218076 -14.066464 2.8475738 0.92737907
-12.214809 -14.026103 2.8448119 0.92750013
-12.211543 -13.985879 2.8420622 0.92762077
-12.208305 -13.945801 2.8393211 0.92774075
-12.205063 -13.905869 2.8365881 0.92786032
-12.201845 -13.866074 2.8338671 0.92797929
-12.198637 -13.82644 2.8311498 0.92809772
-12.195444 -13.786928 2.8284447 0.92821568
-12.061924 -13.60061 2.7955377 0.92907137
-12.189082 -13.708354 2.8230615 0.92844993
-12.185918 -13.669257 2.8203795 0.9285664
-12.847685 -14.374228 2.9714954 0.92493963
-12.894111 -14.388813 2.9801843 0.9247818
-12.940762 -14.403466 2.9889135 0.92462313
-13.830811 -15.354292 3.1923015 0.9197616
-13.878476 -15.367358 3.2011168 0.91960526
-13.926353 -15.380483 3.2099633 0.9194482
-13.949267 -15.365976 3.213062 0.9194296
-13.896962 -15.268799 3.1988361 0.91982687
-14.071089 -15.420156 3.2367182 0.91897273
-14.119687 -15.433476 3.2456994 0.91881287
-14.161865 -15.439633 3.2531977 0.91868871
-14.202202 -15.443662 3.2602611 0.91857487
-14.242646 -15.4477 3.2673461 0.91846067
-14.283213 -15.451743 3.2744474 0.91834599
-14.323896 -15.455806 3.2815728 0.91823083
-14.364677 -15.459878 3.2887108 0.91811532
-14.405585 -15.463955 3.2958703 0.91799933
-14.446601 -15.468051 3.3030474 0.91788286
-14.527743 -15.514877 3.319386 0.9175486
-14.463974 -15.407022 3.3026159 0.91800165
-14.396552 -15.295752 3.2850378 0.91847342
-14.329941 -15.185801 3.2676697 0.91893965
-14.26414 -15.077188 3.2505114 0.91940033
-14.523979 -15.312383 3.3075347 0.91809916
-14.523232 -15.272226 3.3051829 0.918208
-14.52249 -15.232202 3.3028386 0.91831642
-14.521748 -15.192305 3.3005011 0.91842431
-14.521006 -15.152505 3.2981646 0.91853189
-14.520273 -15.112822 3.2958367 0.91863894
-14.519541 -15.073271 3.2935138 0.91874564
-14.539424 -15.055165 3.2958703 0.91874146
-14.528618 -15.005366 3.2912724 0.91890132
-14.517861 -14.955767 3.2866912 0.91906047
-14.507153 -14.906401 3.2821324 0.91921872
-14.787685 -15.155684 3.3434253 0.91782516
-14.813848 -15.143569 3.3471708 0.91778815
-14.758852 -15.048637 3.3325861 0.91818202
-14.801924 -15.053857 3.3401525 0.9180547
-14.845088 -15.059087 3.3477342 0.91792703
-14.888437 -15.064341 3.355346 0.91779864
-14.931929 -15.069609 3.3629797 0.91766977
-14.971293 -15.070654 3.3696861 0.91756272
-14.997617 -15.058461 3.373446 0.91752464
-15.023965 -15.046265 3.3772058 0.91748631
-15.050307 -15.034058 3.3809667 0.91744792
-15.076689 -15.02184 3.3847325 0.91740936
-15.103076 -15.009609 3.3884954 0.91737068
-15.129512 -14.997363 3.3922594 0.91733176
-15.218251 -15.046709 3.4099889 0.91696727
-15.222285 -15.012168 3.4087279 0.91704553
-15.226308 -14.9777 3.4074719 0.9171235
-15.230322 -14.943316 3.406214 0.91720116
-15.234331 -14.908984 3.4049585 0.91727853
-15.238335 -14.874741 3.4037006 0.91735566
-15.303193 -14.899809 3.4160345 0.91711682
-15.297852 -14.856484 3.412694 0.91724205
-15.292529 -14.81333 3.4093657 0.91736668
-15.287227 -14.770292 3.4060442 0.91749084
-15.281948 -14.727417 3.4027324 0.91761446
-15.276674 -14.684663 3.3994305 0.9177376
-15.989907 -15.330928 3.5559173 0.91416639
-16.01622 -15.31687 3.5595484 0.91413081
-16.042568 -15.302793 3.5631793 0.91409498
-16.06892 -15.28872 3.5668139 0.91405904
-17.223042 -16.344818 3.8206103 0.90828377
-17.207617 -16.288399 3.8148205 0.90846652
-17.238657 -16.276011 3.8193285 0.90841353
-17.502031 -16.482378 3.8752813 0.90718669
-17.493706 -16.432367 3.8710442 0.90733361
-17.499184 -16.395439 3.8698637 0.90741056
-17.504648 -16.358608 3.86869 0.90748709
-17.510122 -16.321812 3.8675084 0.90756339
-17.507215 -16.277328 3.8644891 0.90768141
-17.146845 -15.901464 3.7826238 0.90959406
-17.526455 -16.211864 3.8639867 0.90779066
-17.531879 -16.175365 3.8628142 0.90786588
-17.5373 -16.138941 3.8616436 0.90794075
-17.542706 -16.102568 3.8604748 0.90801543
-17.548105 -16.06625 3.859303 0.90808982
-17.553495 -16.030005 3.8581316 0.90816391
-17.558876 -15.993847 3.856961 0.9082377
-17.564257 -15.957725 3.8557947 0.90831131
-17.569618 -15.921679 3.8546264 0.90838456
-17.574965 -15.885708 3.8534613 0.90845764
-17.580313 -15.849794 3.8522973 0.90853035
-17.585649 -15.813954 3.8511322 0.90860289
-17.590981 -15.778164 3.8499658 0.90867513
-17.596298 -15.742465 3.8488042 0.90874702
-17.601616 -15.706797 3.8476398 0.90881878
-17.606915 -15.671215 3.8464801 0.90889019
-17.612202 -15.635703 3.8453178 0.90896136
-17.617491 -15.600229 3.8441594 0.90903229
-17.892284 -15.802876 3.9017718 0.90777892
-17.880688 -15.752065 3.8969023 0.90793341
-17.869141 -15.70144 3.8920488 0.90808719
-17.857626 -15.651025 3.887213 0.90824026
-17.846151 -15.600757 3.8823907 0.90839279
-17.834726 -15.550683 3.8775835 0.90854454
-17.823339 -15.500781 3.8727934 0.9086957
-18.152294 -15.746255 3.9419165 0.90718812
-18.162758 -15.714824 3.9418418 0.90723354
-18.173227 -15.683403 3.9417639 0.90727878
-18.183681 -15.652036 3.94169 0.90732378
-18.194126 -15.620684 3.9416082 0.90736866
-18.204556 -15.589384 3.9415264 0.9074133
-18.214979 -15.558115 3.9414465 0.90745777
-18.225389 -15.526884 3.9413633 0.90750206
-18.2358 -15.495678 3.9412756 0.90754616
-18.246185 -15.464521 3.9411919 0.90759003
-19.495224 -16.480547 4.208498 0.90168524
-19.546844 -16.481527 4.2171531 0.90153754
-19.553686 -16.444721 4.2161455 0.90160388
-19.558363 -16.406157 4.2146673 0.90168023
-19.563026 -16.367695 4.213192 0.90175629
-19.56769 -16.329262 4.2117162 0.9018321
-19.710995 -16.406347 4.2400718 0.90124822
-19.731649 -16.381044 4.2420225 0.9012481
-19.752295 -16.355761 4.2439733 0.9012478
-19.772943 -16.330482 4.2459192 0.90124738
-19.793604 -16.305185 4.2478657 0.90124679
-19.814247 -16.279911 4.2498102 0.90124601
-19.834883 -16.254639 4.2517548 0.90124518
-19.855526 -16.229364 4.2536912 0.90124416
-19.876171 -16.204096 4.2556305 0.90124297
-19.896811 -16.178818 4.2575684 0.90124166
-19.917456 -16.153555 4.2595062 0.90124017
-19.938095 -16.128286 4.2614341 0.9012385
-19.958731 -16.103018 4.2633672 0.90123677
-19.598701 -15.771416 4.1840301 0.90302229
-19.843885 -15.927192 4.2339134 0.90196466
-19.997295 -16.008579 4.2641788 0.90133977
-20.040174 -16.001108 4.2708454 0.90123332
-20.056177 -15.972168 4.2717752 0.90125245
-20.072163 -15.943247 4.2727113 0.9012714
-20.088154 -15.914326 4.2736387 0.90129024
-20.104111 -15.885434 4.2745671 0.90130895
-20.120083 -15.856538 4.2754889 0.90132743
-20.13603 -15.827685 4.2764158 0.90134579
-20.151987 -15.798813 4.2773371 0.90136403
-20.167934 -15.769965 4.2782569 0.90138203
-20.183867 -15.741138 4.2791724 0.90139997
-20.199785 -15.712329 4.2800884 0.90141767
-20.215708 -15.683511 4.2809973 0.90143532
-20.231611 -15.654721 4.2819071 0.90145278
-20.51749 -15.834311 4.3399186 0.90022409
-20.516752 -15.792192 4.337276 0.90031904
-20.516026 -15.750185 4.33464 0.90041357
-20.515303 -15.708257 4.3320036 0.90050781
-20.51458 -15.666421 4.3293729 0.90060169
-20.513866 -15.624673 4.326746 0.90069526
-20.513153 -15.583008 4.3241215 0.90078843
-20.810259 -15.767085 4.3842473 0.89951706
-20.858456 -15.761977 4.3918943 0.89938706
-20.906811 -15.756845 4.3995628 0.89925653
-20.955273 -15.751704 4.4072504 0.89912558
-21.003887 -15.746548 4.414957 0.89899409
-21.052607 -15.741382 4.4226818 0.89886212
-21.100546 -15.735513 4.4302292 0.89873391
-21.086504 -15.683433 4.4247632 0.8988874
-21.07251 -15.631533 4.4193177 0.89904022
-21.058563 -15.579804 4.4138823 0.89919239
-21.044672 -15.528266 4.4084668 0.89934391
-21.030819 -15.476865 4.4030657 0.89949489
-21.017012 -15.425639 4.3976851 0.89964521
-21.003252 -15.374575 4.3923144 0.89979494
-20.98955 -15.323701 4.3869605 0.89994395
-20.975887 -15.272998 4.3816257 0.90009242
-20.962265 -15.222407 4.3763018 0.90024036
-20.94869 -15.172007 4.3709917 0.90038764
-20.935165 -15.121806 4.3657117 0.90053421
-21.877188 -15.760058 4.5595732 0.89638764
-21.922588 -15.750566 4.5664563 0.89627284
-21.968061 -15.741059 4.573349 0.89615774
-22.013653 -15.731528 4.5802574 0.89604217
-22.059355 -15.721972 4.5871806 0.89592618
-22.105165 -15.712399 4.5941162 0.89580977
-22.15107 -15.702803 4.6010642 0.895693
-31.833319 -22.505947 6.6084714 0.85370719
-31.880236 -22.478559 6.6144876 0.85362792
-31.918274 -22.444893 6.6186552 0.85358608
-31.956354 -22.411196 6.6228309 0.853544
-31.994415 -22.377476 6.6269965 0.8535018
-32.032497 -22.343708 6.6311579 0.85345942
-32.070572 -22.309895 6.6353083 0.85341692
-32.108639 -22.276083 6.6394587 0.8533743
-32.146755 -22.242252 6.6436186 0.85333133
-32.184849 -22.208391 6.647768 0.85328823
-32.222919 -22.174463 6.6518955 0.8532452
-29.577087 -20.298523 6.1022882 0.86454558
-29.829885 -20.416508 6.1509976 0.86357963
-30.08674 -20.536406 6.2004981 0.86259896
-30.347548 -20.658123 6.2507439 0.86160421
-30.612234 -20.781647 6.3017387 0.8605957
-30.775246 -20.835423 6.3317609 0.86001825
-30.907875 -20.868177 6.3554916 0.85956979
-30.997894 -20.871881 6.3704429 0.85930121
-31.088314 -20.875603 6.3854613 0.85903132
-31.179045 -20.879314 6.400517 0.85876042
-31.270168 -20.883053 6.4156442 0.8584882
-31.361687 -20.886801 6.4308343 0.85821468
-31.453531 -20.890551 6.4460754 0.85794014
-31.545755 -20.894312 6.4613681 0.85766429
-31.638346 -20.898081 6.4767241 0.8573873
-31.731316 -20.901863 6.4921379 0.85710901
-31.824669 -20.905649 6.5076122 0.85682952
-31.918415 -20.909458 6.5231466 0.85654879
-32.012547 -20.913261 6.5387425 0.85626674
-32.107059 -20.917089 6.5544033 0.85598344
-32.201962 -20.920923 6.5701184 0.85569888
-32.287842 -20.918705 6.5839887 0.85545194
-32.338253 -20.893314 6.5905957 0.85535187
-32.388721 -20.867912 6.5972157 0.85525149
-32.439278 -20.842464 6.6038446 0.85515076
-32.489918 -20.816956 6.6104808 0.85504967
-32.540611 -20.791428 6.6171184 0.85494828
-32.591343 -20.765871 6.6237583 0.8548466
-32.592499 -20.708672 6.6203103 0.85494882
-32.57317 -20.638615 6.6127186 0.85513473
-32.553875 -20.568737 6.6051359 0.8553201
-32.534649 -20.499084 6.5975809 0.85550463
-32.51543 -20.429546 6.5900249 0.85568875
-32.776733 -20.535976 6.6392994 0.85472327
-32.793758 -20.488928 6.6390686 0.85475886
-32.810764 -20.441931 6.6388288 0.8547942
-32.827759 -20.394955 6.6385942 0.85482937
-32.844738 -20.348015 6.6383457 0.8548643
-32.858677 -20.299215 6.6374884 0.85491133
-32.868912 -20.248165 6.6358776 0.85497326
-32.879139 -20.197157 6.6342669 0.85503489
-32.889343 -20.14624 6.6326575 0.85509628
-32.899544 -20.095327 6.6310391 0.85515743
-32.892998 -20.034286 6.6260552 0.8552863
-32.884415 -19.972132 6.6206546 0.85542309
-32.875858 -19.910091 6.6152735 0.85555941
-32.86731 -19.848162 6.6098981 0.85569525
-32.858791 -19.786438 6.6045365 0.85583049
-32.850254 -19.724752 6.5991659 0.85596555
-32.841747 -19.66325 6.5938129 0.85610002
-32.833252 -19.601849 6.5884619 0.85623407
-32.824764 -19.540545 6.5831194 0.85636777
-32.815407 -19.478868 6.5776024 0.8565045
-32.800026 -19.413717 6.5708904 0.85666525
-32.784649 -19.34873 6.5641775 0.85682553
-32.769337 -19.283947 6.5574932 0.85698509
-32.754021 -19.219275 6.5508037 0.8571443
-32.73875 -19.154749 6.5441356 0.8573029
-32.723507 -19.090385 6.5374742 0.85746104
-32.70829 -19.026184 6.5308251 0.85761857
-32.693111 -18.962099 6.5241938 0.85777563
-32.677944 -18.898197 6.5175614 0.85793221
-32.662823 -18.834438 6.5109515 0.8580882
-32.64772 -18.77084 6.5043435 0.85824364
-32.632637 -18.707365 6.4977465 0.85839868
-32.617615 -18.644062 6.4911823 0.85855305
-32.602589 -18.580893 6.484602 0.85870701
-32.587601 -18.517868 6.4780431 0.85886049
-32.572666 -18.455 6.4715052 0.85901332
-32.557705 -18.392233 6.4649549 0.85916591
-32.542809 -18.329649 6.4584332 0.85931778
-32.527935 -18.267239 6.4519162 0.85946918
-32.513077 -18.204905 6.4454083 0.85962015
-32.498257 -18.142736 6.4389138 0.8597706
-32.483459 -18.080717 6.4324303 0.85992056
-32.457306 -18.012533 6.4237061 0.86011547
-32.401917 -17.928347 6.4092002 0.8604266
-32.346802 -17.844536 6.3947687 0.86073613
-32.291943 -17.76115 6.3804016 0.86104417
-32.237305 -17.67812 6.3660846 0.86135077
-32.182957 -17.595531 6.3518462 0.86165571
-32.128845 -17.513317 6.337667 0.86195916
-32.074924 -17.431408 6.3235326 0.86226147
-32.021339 -17.349993 6.3094883 0.86256182
-31.967905 -17.26885 6.2954741 0.86286116
-31.914761 -17.188154 6.2815375 0.86315876
-36.553062 -18.453894 7.1114011 0.84684253
-33.706638 -16.381357 6.5141525 0.85885632
-33.784389 -16.366501 6.5255589 0.85863483
-33.86235 -16.351576 6.5369859 0.85841262
-33.940575 -16.336576 6.5484467 0.85818958
-34.019054 -16.321541 6.5599451 0.85796565
-34.097752 -16.306389 6.5714598 0.85774106
-34.176689 -16.291237 6.5830207 0.85751557
-56.573757 -25.837637 10.818485 0.77684522
-56.392963 -25.669159 10.777906 0.77758473
-56.608562 -25.595219 10.807041 0.77706134
-56.816044 -25.602758 10.840603 0.7764551
-55.941833 -25.123981 10.667837 0.77959388
-56.063225 -25.093578 10.68501 0.77928269
-56.110397 -25.029779 10.688027 0.77922875
-56.157566 -24.965933 10.691035 0.77917457
-56.204704 -24.902033 10.694022 0.77912027
-56.251816 -24.838112 10.696996 0.77906579
-56.693066 -24.947521 10.774874 0.77765042
-56.343647 -24.708994 10.702476 0.77896452
-56.389881 -24.644526 10.705255 0.77891237
-56.436165 -24.580017 10.708045 0.77885985
-56.48246 -24.51548 10.710833 0.77880704
-56.528702 -24.450871 10.713584 0.77875417
-53.459881 -23.043476 10.126286 0.78949976
-53.385471 -22.931601 10.106514 0.78986079
-53.311321 -22.820147 10.086811 0.79022038
-56.536991 -24.116571 10.69113 0.7791478
-57.082302 -24.26413 10.788183 0.77737993
-57.252918 -24.251438 10.814336 0.77690017
-57.364735 -24.213511 10.829372 0.77662218
-60.268768 -25.3498 11.371213 0.76685476
-53.378845 -21.899197 10.031613 0.79116553
-53.3507 -21.809063 10.020667 0.79135919
-53.32262 -21.71913 10.009746 0.79155219
-53.294579 -21.629402 9.9988298 0.79174459
-52.646523 -21.289089 9.871665 0.79408985
-52.659756 -21.217104 9.8685598 0.79413742
-52.672958 -21.14526 9.8654547 0.79418468
-52.686157 -21.073433 9.8623524 0.79423165
-52.699341 -21.001625 9.8592348 0.79427838
-52.704369 -20.926645 9.8545961 0.79435301
-52.707634 -20.851021 9.8496227 0.79443341
-52.710892 -20.775402 9.8446388 0.79451364
-52.714138 -20.699902 9.8396683 0.79459345
-52.717381 -20.624475 9.834693 0.79467291
-52.711784 -20.545683 9.8280792 0.79478258
-52.690517 -20.460783 9.8185272 0.79494625
-52.669292 -20.376137 9.8089933 0.79510933
-52.648106 -20.291647 9.7994747 0.79527181
-52.626942 -20.207226 9.7899694 0.79543394
-52.605804 -20.123013 9.7804699 0.79559547
-52.584698 -20.038948 9.7709818 0.79575646
-52.563602 -19.954947 9.7614918 0.79591715
-52.542576 -19.871168 9.7520437 0.79607713
-52.613861 -19.822262 9.7597065 0.79591793
-52.714958 -19.784458 9.7728748 0.79565567
-52.816345 -19.746552 9.7860842 0.79539251
-52.918114 -19.708504 9.7993441 0.79512817
-53.020058 -19.670359 9.8126125 0.79486322
-53.122356 -19.632082 9.8259277 0.79459709
-53.225018 -19.593658 9.8392916 0.79432988
-53.327805 -19.555166 9.8526525 0.7940622
-53.431004 -19.516523 9.8660717 0.79379326
-53.534359 -19.477774 9.879488 0.79352373
-53.638065 -19.43889 9.8929558 0.79325312
-53.732666 -19.396469 9.9047213 0.79301375
-61.32008 -15.352819 10.783438 0.77375191
-61.290813 -15.263015 10.77176 0.773911
-61.261551 -15.173397 10.760086 0.77406967
-61.232342 -15.083884 10.748431 0.7742278
-61.203152 -14.994586 10.736773 0.77438545
-61.144882 -14.898227 10.720041 0.77463692
-62.675827 -14.098674 10.894752 0.77056056
-62.656231 -14.010821 10.884636 0.77068233
-62.673138 -13.931229 10.880861 0.77068675
-61.893818 -13.675681 10.738944 0.77324474
-61.996563 -13.616029 10.750126 0.77297217
-62.084442 -13.552892 10.758718 0.77274722
-62.171989 -13.489376 10.767235 0.77252328
-62.259655 -13.425755 10.775744 0.77229887
-62.347507 -13.361998 10.784268 0.77207369
-62.428555 -13.29664 10.791597 0.7718702
-62.502953 -13.22962 10.797749 0.77168787
-60.431854 -8.1224031 10.054267 0.78098875
-60.164516 -8.0085039 10.003217 0.78187847
-60.151562 -7.9288039 9.9944878 0.78195488
-60.032436 -7.8353219 9.9681339 0.78237045
-60.110004 -7.7675023 9.9744482 0.78215671
-60.086262 -7.6866064 9.9639187 0.78226656
-60.041958 -7.6032081 9.9500027 0.78244191
-59.995457 -7.5195746 9.9357195 0.78262395
-59.949108 -7.4362311 9.9214802 0.78280509
-59.902782 -7.3529124 9.9072504 0.78298593
-59.856548 -7.269784 9.8930416 0.78316611
-59.888603 -7.1962118 9.8917675 0.78309566
-59.943085 -7.1252251 9.8941889 0.78295326
-60.02792 -7.0576959 9.9015942 0.78271371
-60.097824 -6.9882164 9.9065418 0.78252161
-60.167854 -6.9185572 9.9114656 0.78232902
-60.237957 -6.8488059 9.9163837 0.7821359
-60.3083 -6.7788482 9.9213371 0.78194189
-60.360004 -6.7066813 9.9232111 0.78180707
-59.824078 -6.4926486 9.821929 0.78357643
-59.910515 -6.4246593 9.8295279 0.78332931
-59.997173 -6.356483 9.8371382 0.78308141
-60.084042 -6.2881346 9.8447609 0.78283262
-59.762756 -6.1774659 9.7855244 0.78388619
-59.849514 -6.1091766 9.793128 0.78363693
-59.909435 -6.0380402 9.7963257 0.78347307
-59.948513 -5.9646239 9.7960939 0.78337556
-59.987621 -5.8911438 9.7958593 0.78327769
-60.026756 -5.8175821 9.7956171 0.7831794
-18.306078 6.6095872 2.2257614 0.92463291
-18.295658 6.6336546 2.2219281 0.92464042
-18.297295 6.6621094 2.2195525 0.92460006
-28.084501 15.908796 2.8880498 0.87842453
-27.914608 15.863482 2.8659973 0.87902701
-27.746416 15.818618 2.8441625 0.87962371
-27.57995 15.774216 2.8225548 0.88021439
-27.415205 15.730283 2.8011737 0.88079917
-27.25211 15.686785 2.7800074 0.88137829
-27.090683 15.643744 2.7590599 0.88195157
-26.930849 15.601123 2.7383173 0.88251942
-26.772655 15.558943 2.7177887 0.88308156
-26.615952 15.517165 2.697459 0.8836385
-26.460888 15.475815 2.6773353 0.88418978
-26.325876 15.445762 2.659281 0.88465941
-26.241928 15.445349 2.646419 0.88491929
-26.158339 15.444931 2.633615 0.88517797
-26.0751 15.444524 2.6208708 0.88543534
-25.99227 15.444116 2.6081824 0.88569134
-25.909798 15.443706 2.5955565 0.88594609
-25.827749 15.443303 2.5829816 0.88619941
-25.74601 15.4429 2.5704737 0.88645166
-25.664616 15.4425 2.5580153 0.88670266
-25.583652 15.442101 2.5456178 0.88695228
-26.653463 16.1383 2.6475501 0.88242358
-26.571289 16.13895 2.634881 0.88267332
-26.489506 16.139597 2.6222703 0.88292176
-26.408031 16.140245 2.6097119 0.88316905
-26.326952 16.140888 2.5972118 0.88341504
-26.24613 16.141527 2.5847571 0.88366014
-26.165697 16.142168 2.5723584 0.88390386
-26.085615 16.142805 2.5600171 0.88414639
-26.005854 16.143436 2.5477262 0.88438779
-25.926411 16.144068 2.5354912 0.88462806
-25.8473 16.144697 2.5233054 0.88486719
-25.768545 16.145323 2.5111725 0.88510513
-25.690109 16.145939 2.4990935 0.88534194
-25.611977 16.146559 2.4870591 0.88557768
-25.534157 16.147177 2.4750795 0.88581228
-25.45669 16.147791 2.4631486 0.88604575
-25.379517 16.148405 2.4512725 0.88627815
-25.30266 16.149015 2.43944 0.88650942
-25.226109 16.149624 2.4276628 0.88673967
-25.14986 16.150227 2.4159288 0.88696879
-25.07394 16.150829 2.4042463 0.88719684
-24.998308 16.151432 2.3926091 0.88742381
-24.923018 16.152025 2.381027 0.88764966
-24.847975 16.152624 2.369487 0.8878746
-24.773266 16.153219 2.3579948 0.88809836
-24.698835 16.153807 2.3465483 0.88832116
-24.624716 16.154394 2.3351557 0.88854289
-24.550882 16.154982 2.3238034 0.88876361
-24.477333 16.155565 2.3124979 0.88898331
-24.404081 16.156147 2.3012388 0.88920194
-24.331102 16.156723 2.2900238 0.88941967
-24.258402 16.157301 2.2788539 0.88963634
-24.186001 16.157875 2.2677302 0.88985199
-24.113886 16.158449 2.2566507 0.89006668
-24.042023 16.159018 2.2456172 0.89028043
-23.970469 16.159584 2.2346239 0.89049309
-23.899178 16.160151 2.2236748 0.89070481
-23.828163 16.160715 2.2127745 0.89091557
-23.757404 16.161276 2.2019167 0.89112544
-23.686928 16.161835 2.1910973 0.8913343
-23.616726 16.162392 2.1803179 0.8915422
-23.546787 16.162947 2.1695876 0.89174914
-23.477097 16.1635 2.1588941 0.8919552
-23.40769 16.164047 2.1482468 0.89216024
-23.338512 16.164597 2.1376338 0.8923645
-23.269613 16.165148 2.1270676 0.89256769
-23.200979 16.165691 2.1165438 0.89276999
-23.132607 16.166229 2.1060572 0.8929714
-23.064436 16.166773 2.0956101 0.89317203
-22.996561 16.167311 2.0852034 0.89337164
-22.928919 16.167849 2.0748355 0.89357042
-22.861567 16.168383 2.0645108 0.89376813
-22.79442 16.168915 2.0542274 0.89396513
-22.72753 16.169447 2.0439775 0.89416122
-22.660885 16.169977 2.0337675 0.89435643
-22.594467 16.170502 2.0235987 0.8945508
-22.528307 16.17103 2.0134647 0.89474428
-22.462381 16.171551 2.0033717 0.89493692
-22.396698 16.172071 1.9933146 0.89512867
-22.331259 16.17259 1.9832994 0.89531952
-22.266035 16.173109 1.9733149 0.89550966
-22.201044 16.173628 1.9633708 0.8956989
-22.136288 16.174141 1.953462 0.89588732
-22.071781 16.174652 1.9435917 0.89607483
-22.007471 16.175161 1.9337559 0.89626163
-21.943428 16.175673 1.9239628 0.89644748
-21.87957 16.176176 1.9141982 0.89663267
-21.815956 16.176682 1.9044707 0.89681697
-21.752554 16.177187 1.8947814 0.89700049
-21.689394 16.177683 1.8851222 0.89718318
-21.626425 16.178188 1.8755019 0.89736509
-21.563702 16.17868 1.865918 0.89754623
-21.501177 16.17918 1.8563633 0.89772654
-21.438871 16.179672 1.8468434 0.89790612
-21.376797 16.180166 1.837364 0.89808482
-21.314911 16.180658 1.8279176 0.89826286
-21.253242 16.181145 1.818505 0.89844012
-21.191792 16.181635 1.8091154 0.89861655
-21.130537 16.182121 1.7997721 0.89879227
-21.069511 16.182608 1.7904563 0.89896721
-21.008661 16.183086 1.7811766 0.89914143
-20.619532 15.929785 1.7441292 0.90081275
-20.575121 15.941918 1.7363404 0.90091425
-20.55562 15.973337 1.7306426 0.90090173
-20.496391 15.973808 1.7216078 0.90107095
-20.437353 15.974277 1.7126091 0.90123945
-20.37851 15.974741 1.7036384 0.90140724
-20.319853 15.975209 1.6946983 0.90157431
-20.261396 15.975671 1.6857899 0.90174067
-20.203129 15.976132 1.6769156 0.90190637
-20.145067 15.976594 1.6680671 0.90207124
-20.087187 15.977056 1.6592522 0.90223551
-20.029488 15.977509 1.6504643 0.90239906
-19.971981 15.977968 1.6417063 0.90256196
-19.914673 15.978422 1.6329863 0.90272409
-19.857538 15.978877 1.6242857 0.90288556
-19.800594 15.979326 1.6156224 0.90304637
-19.743828 15.979775 1.6069838 0.90320647
-19.634735 15.937597 1.5941118 0.90361083
-19.578485 15.938042 1.5855558 0.90376925
-19.522402 15.938491 1.577028 0.90392703
-19.466499 15.938931 1.5685289 0.90408409
-19.410801 15.93937 1.5600566 0.90424049
-19.355259 15.939815 1.5516148 0.90439624
-19.299887 15.940253 1.5432017 0.90455133
-19.244686 15.940691 1.5348158 0.90470582
-19.189692 15.941128 1.5264565 0.9048596
-19.134853 15.941565 1.5181239 0.90501273
-19.080141 15.942001 1.509818 0.90516537
-19.02566 15.942429 1.5015403 0.90531719
-18.983236 15.952876 1.4942311 0.90541196
-19.034121 16.041874 1.4942548 0.90506417
-19.085434 16.131596 1.4942793 0.90471333
-19.108974 16.198164 1.492108 0.90449357
-19.054443 16.198589 1.483831 0.90464455
-19.000092 16.19902 1.4755882 0.90479475
-18.945904 16.199453 1.4673723 0.90494442
-18.891874 16.199883 1.4591792 0.90509349
-18.838007 16.200308 1.4510114 0.90524191
-18.784296 16.200737 1.4428712 0.90538973
-18.730776 16.201159 1.43476 0.90553689
-18.677387 16.201586 1.4266703 0.90568352
-18.62417 16.202002 1.418607 0.90582949
-18.571114 16.202427 1.4105695 0.90597492
-18.518223 16.202845 1.4025565 0.90611964
-18.465467 16.203266 1.3945726 0.90626389
-18.412886 16.203678 1.3866105 0.90640754
-18.360449 16.204096 1.378673 0.90655059
-18.308174 16.204512 1.370764 0.90669298
-18.256041 16.204929 1.3628792 0.9068349
-18.204077 16.205336 1.3550136 0.90697616
-18.181059 16.231449 1.3493147 0.90697658
-18.18228 16.279301 1.3454121 0.90685856
-18.183516 16.32728 1.3414963 0.90674001
-18.184746 16.375414 1.3375707 0.90662092
-18.185991 16.423666 1.3336308 0.90650135
-18.187225 16.47209 1.3296888 0.90638119
-18.18848 16.520651 1.3257326 0.90626049
-18.189726 16.569345 1.321764 0.90613937
-18.190977 16.618183 1.3177873 0.90601766
-18.192236 16.667173 1.3138002 0.90589541
-18.193495 16.716318 1.3098036 0.90577263
-18.194765 16.765589 1.3057951 0.9056493
-18.19603 16.81502 1.3017747 0.90552545
-18.1973 16.864609 1.2977494 0.90540099
-18.198481 16.914248 1.2937016 0.90527654
-18.198877 16.963299 1.2895851 0.90515542
-18.199266 17.012489 1.28546 0.90503377
-18.199657 17.06185 1.2813286 0.90491158
-18.200054 17.111328 1.2771819 0.90478885
-18.200453 17.160971 1.2730274 0.90466559
-18.20085 17.210758 1.2688584 0.90454179
-18.20125 17.260702 1.2646781 0.90441746
-18.201645 17.310791 1.2604866 0.90429252
-18.202045 17.361023 1.2562889 0.90416712
-18.202446 17.411413 1.2520769 0.90404111
-18.202847 17.461958 1.2478566 0.90391451
-18.203251 17.512661 1.2436213 0.90378737
-18.203657 17.563505 1.2393749 0.90365976
-18.204062 17.614523 1.2351189 0.90353143
-18.204472 17.665684 1.2308472 0.90340263
-18.204878 17.717016 1.2265712 0.90327322
-18.205292 17.768486 1.2222786 0.90314323
-18.205702 17.820124 1.2179737 0.90301269
-18.206118 17.871933 1.2136576 0.90288156
-18.206528 17.923906 1.2093315 0.90274978
-18.206944 17.976027 1.2049931 0.90261745
-18.207357 18.028318 1.2006413 0.9024846
-18.207773 18.08077 1.1962806 0.90235108
-18.208193 18.133396 1.1919048 0.90221697
-18.208618 18.186167 1.1875179 0.90208226
-18.209044 18.239126 1.1831185 0.9019469
-18.209457 18.29224 1.1787059 0.90181106
-18.209892 18.345531 1.1742805 0.90167451
-18.210312 18.398994 1.169842 0.90153736
-18.210741 18.452621 1.1653929 0.90139955
-18.211172 18.50642 1.1609306 0.90126121
-18.211596 18.560394 1.1564583 0.90112221
-18.212027 18.614531 1.1519712 0.90098262
-18.212461 18.668869 1.1474712 0.90084231
-18.212894 18.723364 1.142956 0.9007014
-18.213329 18.778046 1.1384263 0.90055984
-18.21377 18.832905 1.1338909 0.90041769
-18.214209 18.887939 1.1293375 0.90027481
-18.214647 18.943153 1.1247697 0.90013134
-18.215088 18.998556 1.1201881 0.89998722
-18.215532 19.054148 1.1155968 0.89984238
-18.215977 19.1099 1.110988 0.89969701
-18.216425 19.165854 1.1063682 0.89955086
-18.216875 19.221998 1.1017357 0.89940405
-18.217319 19.27832 1.0970848 0.89925659
-18.217764 19.33485 1.0924269 0.89910841
-18.218222 19.391552 1.0877467 0.89895964
-18.218666 19.448456 1.0830568 0.89881009
-18.219126 19.505539 1.0783516 0.89865994
-18.219585 19.56283 1.0736318 0.89850903
-18.220039 19.620327 1.0689021 0.89835739
-18.220503 19.677988 1.0641526 0.89820516
-18.220957 19.735868 1.0593913 0.89805216
-18.221426 19.793955 1.0546168 0.89789844
-18.221893 19.852221 1.0498216 0.897744
-18.222353 19.910717 1.0450184 0.89758885
-18.222822 19.969385 1.0402015 0.89743304
-18.223291 20.02825 1.0353618 0.89727646
-18.223759 20.08736 1.0305101 0.8971191
-18.224237 20.146645 1.0256443 0.89696109
-18.224707 20.206158 1.0207591 0.89680231
-18.22518 20.265879 1.0158641 0.89664274
-18.225658 20.3258 1.0109489 0.89648247
-18.226147 20.385937 1.0060197 0.89632142
-18.226625 20.446293 1.0010774 0.89615965
-18.22711 20.506861 0.99611431 0.89599711
-18.227587 20.567636 0.99114394 0.89583379
-18.228071 20.628649 0.98614639 0.8956697
-16.462666 18.685522 0.88609236 0.90513086
-16.3908 18.658705 0.87767833 0.90537661
-16.335005 18.649956 0.87015367 0.90553451
-16.2794 18.641239 0.86264873 0.90569174
-16.224009 18.632551 0.85517502 0.90584821
-16.168745 18.623882 0.84772384 0.90600419
-16.113682 18.615253 0.84030104 0.90615934
-16.058788 18.606647 0.83289897 0.9063139
-16.004082 18.598068 0.82552534 0.90646774
-15.949555 18.589521 0.81817734 0.90662092
-15.89519 18.581001 0.81085312 0.90677345
-15.841005 18.5725 0.80355543 0.90692538
-15.786997 18.564037 0.79628158 0.9070766
-15.73313 18.55559 0.78902966 0.90722722
-15.679453 18.547182 0.78180462 0.90737718
-15.625952 18.538794 0.77460313 0.90752643
-15.572602 18.530439 0.76742661 0.90767515
-15.519433 18.522108 0.76027268 0.90782315
-15.46644 18.513803 0.75314713 0.90797049
-15.413598 18.505522 0.74604112 0.90811729
-15.360912 18.497265 0.73895401 0.90826344
-15.308389 18.489038 0.73189771 0.908409
-15.260605 18.486366 0.72507828 0.90852779
-15.21542 18.486723 0.71839643 0.90863192
-15.170337 18.48708 0.71173018 0.90873569
-15.125356 18.487436 0.7050789 0.90883899
-15.080449 18.487797 0.69844007 0.90894192
-15.035649 18.48815 0.6918245 0.90904444
-14.990942 18.488508 0.68521345 0.90914655
-14.946342 18.488861 0.6786235 0.90924829
-14.901812 18.489214 0.67204726 0.90934962
-14.857397 18.489567 0.66548997 0.90945059
-14.813056 18.489916 0.65895188 0.90955114
-14.768818 18.490269 0.65242535 0.90965134
-14.724663 18.49062 0.64591473 0.90975112
-14.68061 18.490969 0.63941145 0.90985048
-14.63665 18.491318 0.6329298 0.90994948
-14.592758 18.491669 0.62645829 0.91004813
-14.548969 18.492008 0.62000471 0.91014642
-14.505273 18.492363 0.61356705 0.91024429
-14.461679 18.492704 0.60713971 0.91034174
-14.418149 18.493052 0.60072827 0.9104389
-14.374706 18.493399 0.59432995 0.91053563
-14.331367 18.49374 0.58795226 0.91063201
-14.2881 18.494081 0.58158445 0.91072798
-14.244941 18.494423 0.57523495 0.91082358
-14.201855 18.494764 0.56889039 0.91091883
-14.158842 18.495108 0.56257141 0.91101378
-14.115917 18.495447 0.55625623 0.91110831
-14.073091 18.49579 0.54995924 0.91120243
-14.030346 18.496128 0.54367661 0.91129619
-13.987685 18.496462 0.53740674 0.91138965
-13.945097 18.496807 0.53115052 0.91148269
-13.905293 18.50071 0.52501416 0.9115591
-13.869673 18.510134 0.51903594 0.91161007
-13.834091 18.519548 0.51307142 0.91166079
-13.79854 18.52895 0.50710964 0.91171128
-13.763037 18.53834 0.50115341 0.91176152
-13.727534 18.547733 0.49520797 0.91181153
-13.6921 18.557104 0.48927048 0.9118613
-13.656689 18.566471 0.4833383 0.91191083
-13.621299 18.575834 0.47741407 0.91196018
-13.585957 18.585182 0.47149214 0.9120093
-13.550639 18.594526 0.46558365 0.91205812
-13.515347 18.603859 0.45967728 0.91210675
-13.480107 18.613184 0.45377854 0.91215515
-13.444878 18.622505 0.44789046 0.91220331
-13.409687 18.631805 0.44200423 0.91225129
-13.374536 18.641108 0.43612897 0.91229898
-13.339414 18.650394 0.43025848 0.91234648
-13.304317 18.659689 0.42439482 0.91239369
-13.269258 18.668972 0.41853407 0.91244066
-13.234219 18.678247 0.41268569 0.91248745
-13.204551 18.695036 0.40700394 0.91250032
-13.175547 18.712788 0.40134689 0.91250879
-13.152471 18.738998 0.39586869 0.91247928
-13.140429 18.781031 0.39071241 0.91237921
-13.133159 18.830048 0.38568923 0.91224808
-13.133852 18.890757 0.38087997 0.91206521
-13.134561 18.951708 0.37605101 0.91188139
-13.135254 19.012947 0.37120146 0.91169661
-13.135966 19.074501 0.36632904 0.91151065
-13.136669 19.136312 0.3614389 0.91132385
-13.137392 19.198421 0.35652465 0.91113591
-13.138105 19.260815 0.35158995 0.91094697
-13.138818 19.32354 0.34662858 0.91075695
-13.13955 19.386522 0.341649 0.91056591
-13.140278 19.449821 0.33665007 0.91037375
-13.141006 19.513401 0.3316243 0.91018063
-13.141738 19.577305 0.32657638 0.90998638
-13.14248 19.6415 0.32150924 0.90979105
-13.143212 19.706024 0.31641722 0.90959466
-13.14396 19.770864 0.31130293 0.90939707
-13.144707 19.835995 0.30616271 0.9091984
-13.145458 19.901445 0.30099958 0.90899867
-13.14622 19.967232 0.29581663 0.90879774
-13.146977 20.033325 0.29060423 0.90859574
-13.147734 20.099728 0.28537124 0.90839261
-13.1485 20.166479 0.28011474 0.90818828
-13.149272 20.233578 0.27482864 0.90798271
-13.150048 20.300985 0.26952407 0.90777606
-13.150829 20.368715 0.26418915 0.90756828
-13.151611 20.436806 0.25883591 0.90735918
-13.152392 20.505236 0.25345168 0.90714896
-13.153178 20.574005 0.24804504 0.90693754
-13.153975 20.64312 0.24261062 0.90672487
-13.154765 20.712593 0.23715071 0.90651095
-13.155566 20.782406 0.23166518 0.90629584
-12.893901 20.436552 0.2216391 0.90786409
-12.893012 20.502998 0.21618316 0.90766186
-12.892118 20.569775 0.21069992 0.90745842
-12.891231 20.636883 0.20519485 0.90725386
-12.890326 20.704319 0.19966201 0.90704811
-12.889428 20.77207 0.19410385 0.90684128
-12.888642 20.84038 0.18851852 0.9066323
-12.887939 20.909145 0.18291168 0.90642166
-12.887241 20.978296 0.17727889 0.90620965
-12.886538 21.047749 0.17161956 0.9059965
-12.885825 21.117582 0.16593063 0.9057821
-12.885107 21.187738 0.16021453 0.90556651
-12.884395 21.258284 0.15447159 0.90534961
-12.883672 21.329165 0.14870147 0.90513152
-12.882944 21.400385 0.14290619 0.90491223
-12.890859 21.48645 0.13716827 0.9046306
-12.847275 21.486794 0.13087586 0.90471071
-12.803745 21.487143 0.12459106 0.90479046
-12.760288 21.487484 0.11831894 0.90486991
-12.716908 21.487831 0.11205673 0.90494901
-12.673564 21.488171 0.10580902 0.90502787
-12.630293 21.48852 0.099564515 0.90510637
-12.58711 21.488857 0.093334958 0.90518451
-12.543964 21.489201 0.08711639 0.90526241
-12.500889 21.489544 0.080910794 0.9053399
-12.4579 21.489882 0.074713588 0.90541708
-12.414946 21.490225 0.068523102 0.90549403
-12.37206 21.490568 0.062347107 0.90557063
-12.329247 21.490902 0.056181334 0.90564692
-12.286484 21.491245 0.050026245 0.90572286
-12.243789 21.491577 0.043881226 0.90579849
-12.201172 21.49192 0.037747193 0.90587384
-12.158593 21.49226 0.031625822 0.90594882
-12.116094 21.492592 0.025511932 0.90602356
-12.073643 21.492933 0.019408263 0.90609795
-12.03125 21.493271 0.013315124 0.90617204
-11.988931 21.493603 0.0072317505 0.90624583
-11.94666 21.493942 0.0011585999 0.90631932
-11.904453 21.494276 -0.0049047852 0.90639251
-11.8623 21.49461 -0.010961151 0.90646535
-11.820205 21.494942 -0.017005004 0.90653795
-11.778173 21.495275 -0.023037871 0.90661019
-11.736206 21.495609 -0.029063873 0.90668213
-11.694302 21.495941 -0.035078581 0.90675384
-11.683081 21.552807 -0.041189574 0.90659195
-11.647641 21.565132 -0.047226865 0.90661377
-11.607685 21.569014 -0.053238221 0.90667009
-11.567827 21.573017 -0.059247129 0.90672565
-11.528028 21.577055 -0.065246582 0.90678084
-11.488281 21.581093 -0.071238399 0.90683568
-11.448569 21.585117 -0.077220149 0.90689033
-11.407114 21.585775 -0.08318191 0.90695852
-11.365449 21.585938 -0.089135438 0.90702844
-11.323842 21.586098 -0.095080107 0.90709805
-11.282285 21.58626 -0.10101227 0.90716738
-11.24079 21.586418 -0.10693558 0.90723646
-11.199355 21.586573 -0.11285278 0.90730518
-11.157969 21.586733 -0.11875518 0.90737367
-11.116626 21.586895 -0.12465469 0.90744179
-11.075361 21.587049 -0.13054229 0.90750968
-11.034131 21.587215 -0.13642135 0.90757728
-10.992964 21.587362 -0.14229156 0.90764457
-10.95185 21.587526 -0.14815047 0.90771157
-10.91079 21.587685 -0.15400344 0.90777826
-10.869785 21.587841 -0.15984511 0.90784466
-10.828818 21.587996 -0.16567856 0.90791082
-10.787915 21.588156 -0.17150696 0.90797669
-10.74705 21.588301 -0.17732376 0.90804231
-10.70626 21.588457 -0.18313125 0.90810758
-10.663188 21.583933 -0.18888961 0.90819156
-10.620063 21.579123 -0.19463195 0.90827632
-10.576982 21.574318 -0.20036697 0.90836084
-10.502676 21.505396 -0.20547591 0.90870434
-10.462368 21.505713 -0.21122268 0.90876728
-10.422104 21.506037 -0.21695602 0.90882999
-10.381894 21.506357 -0.22268707 0.90889239
-10.341728 21.50667 -0.22840759 0.90895456
-10.301611 21.506992 -0.23411788 0.90901643
-10.261553 21.507309 -0.23982055 0.909078
-10.221523 21.507626 -0.24551834 0.90913928
-10.181542 21.507944 -0.251203 0.90920037
-10.141621 21.508257 -0.25688294 0.90926111
-10.101738 21.508579 -0.26255539 0.90932161
-10.061909 21.508896 -0.26821807 0.90938181
-10.022139 21.509211 -0.27387604 0.90944171
-9.9823923 21.509523 -0.27952406 0.90950143
-9.9426947 21.509838 -0.2851648 0.90956086
-9.9030514 21.510151 -0.29079589 0.90961999
-9.8634377 21.510471 -0.29642257 0.90967882
-9.8238869 21.510784 -0.30203933 0.90973741
-9.7843752 21.511099 -0.30764908 0.90979576
-9.7449074 21.511406 -0.31325194 0.90985382
-9.7054834 21.511721 -0.31884825 0.90991163
-9.6661081 21.512033 -0.3244319 0.90996915
-9.6267719 21.512342 -0.33001465 0.91002643
-9.5874701 21.512655 -0.3355847 0.91008341
-9.5482178 21.51297 -0.34115097 0.91014016
-9.5090179 21.513279 -0.3467111 0.9101966
-9.4698629 21.513594 -0.35225922 0.91025275
-9.4307318 21.513897 -0.35780287 0.91030878
-9.3916502 21.514208 -0.36334136 0.91036445
-9.352622 21.514526 -0.36886901 0.91041982
-9.3136282 21.514828 -0.37439024 0.91047502
-9.2746677 21.515141 -0.37990737 0.91052991
-9.2357616 21.51545 -0.3854138 0.91058451
-9.1968842 21.515757 -0.39091384 0.91063887
-9.1580515 21.516064 -0.39640883 0.91069305
-9.131772 21.545874 -0.40244323 0.91063017
-9.1325245 21.639912 -0.40971038 0.91031325
-9.1332808 21.734638 -0.41702515 0.90999395
-9.1340427 21.830135 -0.42439878 0.9096719
-9.1348047 21.926376 -0.43182433 0.9093473
-9.1355715 22.023325 -0.43930998 0.90902025
-9.1363525 22.121042 -0.44685546 0.90869045
-9.1371336 22.21954 -0.45445159 0.90835798
-9.1379299 22.318842 -0.46211424 0.90802264
-9.1387205 22.418896 -0.4698306 0.90768474
-9.1395311 22.519749 -0.47760925 0.90734404
-9.1403322 22.621418 -0.4854486 0.90700048
-9.1411619 22.723911 -0.49335188 0.90665406
-9.1419773 22.827234 -0.50131792 0.90630478
-9.1428022 22.93137 -0.50934798 0.90595263
-9.1436377 23.036379 -0.5174374 0.90559745
