# .PCD v0.7 - Point Cloud Data file format
VERSION 0.7
FIELDS x y z intensity
SIZE 4 4 4 4
TYPE F F F F
COUNT 1 1 1 1
WIDTH 1141
HEIGHT 1
VIEWPOINT 0 0 0 1 0 0 0
POINTS 1141
DATA ascii
0.98789549 19.289228 3.0406051 0.92477065
1.0124414 19.28355 3.0378494 0.9247883
1.0369873 19.277876 3.0350955 0.92480582
1.0615185 19.272198 3.032335 0.92482328
1.0860302 19.266514 3.0295775 0.92484063
1.1105322 19.260834 3.0268178 0.9248578
1.135044 19.255156 3.0240602 0.9248749
1.1595312 19.249468 3.021297 0.92489189
1.1840087 19.243765 3.0185328 0.92490888
1.2084912 19.238085 3.0157764 0.92492563
1.2329687 19.232403 3.0130153 0.92494226
1.2574316 19.226713 3.0102527 0.92495883
1.2818848 19.221029 3.007493 0.92497522
1.3063232 19.215326 3.0047252 0.92499161
1.3307617 19.209633 3.001961 0.92500782
1.3552002 19.20393 2.9991982 0.92502397
1.379624 19.198236 2.9964325 0.92503995
1.4040283 19.192539 2.9936659 0.92505586
1.4284521 19.18684 2.9908974 0.92507166
1.4528466 19.181137 2.9881303 0.92508733
1.4772607 19.175444 2.9853659 0.92510283
1.5016454 19.169731 2.9825952 0.92511833
1.5260205 19.164038 2.9798257 0.92513365
1.5503955 19.158319 2.9770555 0.9251489
1.5747607 19.152613 2.9742858 0.92516404
1.5991162 19.146904 2.9715149 0.92517906
1.6234814 19.141201 2.9687459 0.92519397
1.6478271 19.135479 2.9659708 0.92520881
1.6721777 19.12977 2.9631982 0.92522347
1.6965185 19.124058 2.9604263 0.92523801
1.7208544 19.11834 2.9576473 0.9252525
1.7451708 19.112612 2.9548743 0.92526692
1.7694873 19.10689 2.9520986 0.92528117
1.7938037 19.101177 2.9493222 0.92529529
1.8181103 19.095444 2.9465435 0.92530936
1.842417 19.089722 2.9437649 0.92532325
1.8666943 19.084003 2.9409888 0.92533702
1.8910106 19.078281 2.9382098 0.92535073
1.9152734 19.072538 2.9354305 0.92536438
3.8587353 37.933197 5.834466 0.85702252
3.9062352 37.914196 5.827764 0.85707366
3.9537158 37.895203 5.8210702 0.85712457
4.001152 37.87624 5.8143692 0.85717517
4.0485888 37.857269 5.8076763 0.85722554
4.0959716 37.838329 5.8009872 0.85727566
4.1433544 37.819378 5.7943006 0.85732561
4.1906981 37.800449 5.7876129 0.85737526
4.2380128 37.78154 5.78093 0.85742468
4.2852783 37.762642 5.7742496 0.85747379
4.2721925 37.217999 5.687233 0.85936069
4.3217235 37.224911 5.6845427 0.85931945
4.3713136 37.231827 5.6818552 0.85927796
4.4209275 37.23875 5.6791668 0.85923618
4.4705811 37.245667 5.6764698 0.85919422
4.520288 37.252602 5.6737647 0.85915202
4.5700145 37.259521 5.6710558 0.85910958
4.6197996 37.266468 5.6683531 0.85906684
4.6696091 37.273418 5.6656418 0.85902387
4.7194967 37.280369 5.6629257 0.85898066
4.7693849 37.287308 5.6602001 0.85893726
4.8193312 37.29427 5.6574836 0.85889357
4.8693261 37.301235 5.6547489 0.85884964
4.9193702 37.308201 5.6520166 0.85880542
4.969419 37.315166 5.6492772 0.85876107
5.0195265 37.322144 5.6465402 0.85871637
5.0697021 37.329128 5.6437955 0.85867143
5.1198874 37.336109 5.6410489 0.85862631
5.1701417 37.343109 5.6382971 0.85858083
5.2204394 37.350113 5.63554 0.85853511
5.2707472 37.357101 5.6327758 0.85848927
5.3190722 37.349609 5.6278291 0.85849392
5.3657761 37.330959 5.6211944 0.85853755
5.412456 37.312321 5.6145706 0.85858089
5.4591355 37.29369 5.6079416 0.85862398
5.4569626 36.944576 5.5516539 0.85982776
5.5092726 36.966919 5.5512133 0.85972667
5.5616159 36.989277 5.5507708 0.85962528
5.6750097 37.413296 5.6105499 0.85811281
5.7257371 37.420334 5.6077514 0.85806465
5.5637889 36.048965 5.3985291 0.86286891
5.6113377 36.046658 5.3944592 0.86285388
5.6588917 36.044365 5.3903966 0.86283857
5.7064695 36.042053 5.3863244 0.86282313
5.7540574 36.039742 5.3822446 0.86280745
5.8016748 36.037437 5.3781772 0.86279154
5.6016016 34.508919 5.146482 0.86818582
5.6509228 34.52911 5.1459198 0.86809039
5.7002931 34.549324 5.1453462 0.86799467
5.7497702 34.569595 5.1447654 0.86789846
5.7993698 34.589905 5.1441913 0.8678019
5.8490086 34.610229 5.1436095 0.86770511
5.8987646 34.630604 5.1430326 0.86760783
5.9485888 34.651016 5.1424494 0.8675102
5.9985156 34.671455 5.1418662 0.86741221
6.0485106 34.691929 5.1412787 0.86731386
6.0986276 34.712456 5.1406932 0.8672151
6.1488233 34.733017 5.1401014 0.86711597
6.1990967 34.753605 5.1395073 0.86701649
6.2494578 34.774227 5.1389098 0.86691672
6.2999167 34.794895 5.1383119 0.86681646
6.3504734 34.815609 5.1377149 0.86671585
6.401123 34.836346 5.1371131 0.86661488
6.4518504 34.857128 5.136507 0.86651349
6.5026803 34.877953 5.1359019 0.86641175
6.5536084 34.898811 5.1352921 0.86630958
6.6046143 34.919701 5.1346812 0.86620706
6.6557178 34.940636 5.1340704 0.86610419
6.7069383 34.961617 5.133461 0.86600083
6.7582374 34.982632 5.1328406 0.86589712
7.209497 37.059132 5.4335938 0.85849744
7.255044 37.035694 5.4262271 0.85854959
6.9961376 35.468906 5.1929131 0.86407697
7.3460546 36.988846 5.4115095 0.85865313
7.3915381 36.965435 5.4041605 0.85870457
7.4369674 36.942074 5.3968072 0.85875565
7.4823875 36.918697 5.3894567 0.85880655
7.5277686 36.895344 5.3821154 0.85885721
7.5731297 36.872013 5.3747773 0.85890758
7.6184421 36.848682 5.3674383 0.85895771
7.6637645 36.825375 5.360106 0.8590076
7.7090478 36.802078 5.3527789 0.85905725
7.7543116 36.778778 5.3454528 0.85910672
7.342793 34.603123 5.0255332 0.86682749
7.3982029 34.641415 5.0273762 0.86665845
8.0074949 37.256073 5.4028277 0.85731322
7.8060203 36.089073 5.2297091 0.86142385
8.0923777 37.177872 5.3834863 0.85752112
8.1347113 37.138863 5.3738384 0.85762453
8.1770363 37.09988 5.3641958 0.85772765
8.2192774 37.060974 5.3545728 0.85783029
8.5383978 38.263298 5.5241513 0.85353673
8.5942039 38.277847 5.5221086 0.85344851
8.6500826 38.2924 5.5200634 0.85336
8.7060642 38.306988 5.5180187 0.85327107
8.7621241 38.321602 5.5159683 0.85318178
8.8182859 38.336235 5.5139136 0.85309213
10.581294 37.935032 5.3094726 0.85303247
10.611948 37.852383 5.2936468 0.85328096
10.642509 37.770039 5.2778811 0.85352838
10.672935 37.687954 5.2621603 0.85377485
10.703296 37.60614 5.2464957 0.8540203
10.733535 37.524616 5.2308812 0.8542648
10.763667 37.443382 5.2153177 0.85450822
10.793715 37.362408 5.1998181 0.85475069
10.823637 37.281719 5.1843567 0.85499215
10.853461 37.201298 5.1689477 0.85523266
10.883188 37.121143 5.1535983 0.85547221
10.912837 37.04126 5.1382952 0.8557108
10.942368 36.961624 5.1230469 0.85594845
10.942036 36.782299 5.0939975 0.85654557
11.001127 36.803192 5.0926924 0.85642081
11.030366 36.724365 5.0775895 0.85665554
11.059506 36.645802 5.0625415 0.85688937
11.08855 36.567501 5.0475373 0.85712224
11.117505 36.489456 5.032588 0.85735416
11.146362 36.411663 5.0176835 0.85758519
11.135717 36.206078 4.9852009 0.85827905
11.087797 35.881554 4.936388 0.85940528
11.135922 35.869305 4.9305792 0.8593992
11.184077 35.857071 4.9247708 0.85939288
11.232261 35.84481 4.9189587 0.85938632
11.280435 35.832577 4.9131351 0.85937953
11.328657 35.82032 4.9073205 0.8593725
11.37688 35.808052 4.9014997 0.85936528
11.425102 35.795799 4.8956766 0.85935777
11.473364 35.783535 4.8898563 0.85935009
11.521626 35.771263 4.8840289 0.85934216
11.569898 35.758999 4.8781986 0.85933393
11.618213 35.746712 4.8723698 0.85932559
11.666528 35.734436 4.8665361 0.85931695
11.714858 35.722153 4.8606949 0.85930806
11.763207 35.709854 4.8548608 0.859299
11.811586 35.697563 4.8490248 0.85928965
11.859965 35.685272 4.8431792 0.85928005
11.908379 35.672962 4.8373308 0.85927033
11.956811 35.660648 4.8314881 0.85926026
12.005234 35.648342 4.8256359 0.85925001
12.053706 35.636036 4.8197861 0.85923952
12.102173 35.623711 4.8139343 0.85922879
12.150654 35.611385 4.808074 0.85921788
12.164155 35.496773 4.7884226 0.85958135
12.225854 35.523132 4.7877884 0.85942823
12.296265 35.574379 4.7904968 0.85918361
12.344858 35.562035 4.7846265 0.85917169
12.393472 35.549671 4.778759 0.85915959
12.442065 35.537319 4.7728858 0.85914725
12.490727 35.52496 4.7670112 0.85913461
12.539351 35.5126 4.761138 0.8591218
12.588032 35.500229 4.7552586 0.85910875
12.636738 35.487846 4.7493806 0.85909545
12.685453 35.475468 4.7434978 0.85908192
12.734204 35.463081 4.7376056 0.8590681
12.782964 35.45068 4.7317204 0.85905409
12.831723 35.43829 4.725822 0.8590399
12.880542 35.425884 4.7199368 0.85902536
12.92937 35.413475 4.7140369 0.85901064
12.978208 35.401058 4.7081389 0.85899574
13.02707 35.388645 4.702239 0.85898048
13.075967 35.376221 4.6963315 0.85896504
13.163579 35.468006 4.7042484 0.85856456
12.458423 33.431602 4.4301224 0.86605573
12.518315 33.456158 4.4293385 0.86590499
12.578374 33.480785 4.4285545 0.86575359
12.638589 33.505474 4.4277692 0.8656016
12.698955 33.530228 4.4269805 0.86544907
12.759506 33.555054 4.4261894 0.86529583
12.82021 33.579941 4.4253974 0.86514205
12.881069 33.604897 4.4246106 0.86498767
12.942084 33.629917 4.4238129 0.86483264
13.003276 33.655003 4.4230089 0.86467707
13.064648 33.680176 4.4222112 0.86452073
13.126186 33.705399 4.4214106 0.86436391
13.187837 33.730675 4.4206018 0.86420649
13.249717 33.75605 4.4197993 0.86404836
13.311743 33.781479 4.4189906 0.86388963
13.37396 33.806992 4.4181809 0.86373019
13.436314 33.832558 4.4173679 0.86357021
13.494496 33.847237 4.415122 0.86345065
13.539946 33.829849 4.40869 0.86345088
13.585395 33.812469 4.4022551 0.86345083
13.630883 33.795078 4.395824 0.86345059
13.676362 33.777676 4.3893886 0.86345011
13.721869 33.760277 4.382956 0.86344939
13.767378 33.742882 4.376514 0.86344844
13.812876 33.725471 4.3700757 0.86344731
13.858422 33.708065 4.3636308 0.86344588
13.903959 33.690655 4.3571911 0.86344427
13.949531 33.673218 4.350749 0.86344248
13.995092 33.655788 4.3443046 0.86344039
14.040668 33.638367 4.3378563 0.86343807
14.086245 33.620934 4.3314152 0.86343557
14.131855 33.603489 4.3249583 0.86343282
14.177465 33.586044 4.3185163 0.86342984
14.223095 33.568607 4.3120608 0.86342657
14.268735 33.551144 4.3056049 0.86342317
14.314384 33.533688 4.2991486 0.86341947
14.360073 33.516216 4.2926941 0.86341554
14.405727 33.498745 4.2862382 0.86341149
14.45143 33.481258 4.2797747 0.86340714
14.497149 33.463783 4.273314 0.86340249
14.542886 33.446297 4.2668509 0.86339766
14.588623 33.428787 4.2603879 0.86339265
14.63435 33.411312 4.2539215 0.86338735
14.680117 33.393803 4.2474513 0.86338186
14.725903 33.376282 4.2409816 0.86337614
14.771704 33.358765 4.2345128 0.86337012
14.817524 33.34124 4.2280378 0.86336392
14.863344 33.323704 4.2215619 0.86335754
14.909199 33.30616 4.2150879 0.86335087
14.955058 33.288631 4.2086091 0.86334395
15.000922 33.271091 4.202127 0.8633368
15.046797 33.253525 4.1956415 0.86332947
62.235813 43.011395 2.2544107 0.73878843
61.6534 42.475487 2.2128513 0.74111074
61.356098 42.138172 2.1818371 0.74240685
61.57885 42.158428 2.1694062 0.7418288
61.590191 42.033604 2.1494827 0.74201173
61.675617 41.959423 2.1321437 0.74192768
61.682384 41.831837 2.1121001 0.74212545
61.689144 41.704327 2.092083 0.74232268
61.695881 41.57708 2.0721273 0.74251908
61.70261 41.450077 2.052191 0.7427147
61.718147 41.329082 2.0325832 0.74287814
62.290188 41.579716 2.0311415 0.74105412
62.657112 41.691669 2.0227501 0.73996693
62.743607 41.616386 2.0052016 0.73987842
60.495441 39.997284 1.9137832 0.74812132
60.553696 39.907986 1.8960708 0.74812442
63.121761 41.467354 1.9561414 0.73919171
63.035004 41.277782 1.9331589 0.7397154
62.780239 40.979099 1.9051937 0.74083257
62.762093 40.835674 1.8845348 0.74111116
63.377964 41.103699 1.882773 0.73915064
63.67968 41.166317 1.8714087 0.73830283
63.957336 41.212334 1.8591726 0.73754168
62.104641 39.889217 1.78557 0.74428421
62.180794 39.808758 1.7680197 0.74422389
62.256966 39.728298 1.7504632 0.7441631
61.737953 39.269138 1.7163366 0.74620509
61.709553 39.123379 1.6960803 0.74651122
61.786839 39.044735 1.6787256 0.74644303
61.410061 38.68 1.6491876 0.74797881
61.466431 38.588943 1.6314123 0.74798226
61.522797 38.497871 1.6136307 0.74798524
61.213081 38.178429 1.5863656 0.7492801
61.316799 38.117458 1.5699213 0.74911398
60.880238 37.721561 1.5397527 0.75085461
61.494732 37.97662 1.5361661 0.74888527
61.476929 37.840302 1.5166525 0.74914616
61.44508 37.695583 1.4968289 0.74945581
61.413284 37.551189 1.4770627 0.74976438
61.916878 37.733475 1.4700574 0.74819285
61.419514 37.30587 1.4393228 0.75013363
61.991673 37.527969 1.4336615 0.74832302
61.932571 37.367039 1.4132745 0.74872482
62.232677 37.422596 1.401051 0.74787039
62.311829 37.344677 1.3837705 0.74778837
62.391079 37.266689 1.3664639 0.7477057
62.470325 37.188614 1.3491644 0.74762273
62.54969 37.110497 1.331828 0.74753898
64.203438 37.963066 1.347525 0.74200583
64.199684 37.832626 1.3279926 0.74221325
64.195923 37.702225 1.3084829 0.74242026
64.192169 37.572117 1.288996 0.74262625
64.188423 37.442207 1.2695547 0.74283153
67.958595 39.506348 1.3236591 0.73017269
68.164436 39.49078 1.3071713 0.7296766
68.279572 39.422245 1.2888861 0.72948682
68.302925 39.300652 1.2688742 0.72960585
68.326233 39.179131 1.248865 0.72972447
68.349541 39.057674 1.2288809 0.72984242
69.351959 39.493896 1.2262307 0.72667688
68.900299 39.1012 1.1977367 0.72838539
69.523941 39.31863 1.187919 0.72649527
69.610016 39.230827 1.168743 0.72640377
69.167892 38.846268 1.1408453 0.72807419
68.829018 38.521355 1.114913 0.72939992
68.946274 38.452354 1.0964721 0.72920024
69.063751 38.383232 1.0779934 0.72899973
69.181458 38.313934 1.0594754 0.72879839
68.682014 37.903866 1.0316565 0.73065424
69.408775 38.170193 1.0222296 0.72842222
69.210129 37.926758 0.99904841 0.72927219
69.416412 37.90543 0.9817456 0.72877496
69.382744 37.75293 0.96101868 0.72907472
69.349121 37.600731 0.94036132 0.72937351
69.591202 37.59782 0.92340881 0.72875732
69.529846 37.43082 0.90242004 0.7291466
69.468666 37.264336 0.88147461 0.72953439
70.11351 37.475605 0.86938262 0.72758758
70.202042 37.388367 0.85019559 0.72748035
64.252914 33.851376 0.72263551 0.74787956
15.602461 7.0304685 -0.0027526855 0.93383723
15.588335 6.9958396 -0.0069619748 0.93393844
15.594204 6.9702392 -0.011182556 0.93395752
15.604926 6.9467969 -0.015390624 0.93395656
15.638081 6.933291 -0.019631499 0.93386388
63.595852 26.373604 -0.3507579 0.75927275
63.658344 26.286552 -0.36787367 0.75919825
63.720882 26.199335 -0.38500229 0.75912327
63.785648 26.112988 -0.4021495 0.75904053
59.277336 23.535282 -0.48220274 0.77482212
59.278225 23.431416 -0.49763748 0.77493781
59.290413 23.332178 -0.51314622 0.77501512
59.291313 23.228495 -0.52853698 0.77512962
59.292183 23.12496 -0.54391098 0.77524358
59.293041 23.021463 -0.5592854 0.77535707
59.293911 22.918116 -0.57463515 0.7754699
59.294758 22.814833 -0.58994353 0.77558231
59.295647 22.711699 -0.60526139 0.77569395
59.296509 22.608612 -0.6205551 0.77580518
59.297367 22.505606 -0.63583249 0.77591586
59.298237 22.402735 -0.65110368 0.77602595
59.299114 22.299911 -0.6663419 0.7761355
59.299953 22.197197 -0.681557 0.77624458
59.300823 22.094551 -0.69675648 0.776353
59.301704 21.992041 -0.71195155 0.77646083
59.302551 21.889551 -0.72711796 0.77656829
59.303413 21.787207 -0.74227649 0.77667511
59.304279 21.684961 -0.75741512 0.77678132
59.30513 21.582733 -0.77254564 0.77688712
59.305988 21.480694 -0.7876637 0.77699226
59.306831 21.378672 -0.8027404 0.77709693
59.307709 21.276718 -0.81783581 0.777201
59.308559 21.174921 -0.83288419 0.77730453
59.309406 21.073154 -0.84793115 0.77740759
59.310276 20.971474 -0.8629604 0.77751005
59.311127 20.869864 -0.87798393 0.77761203
59.311966 20.768368 -0.89297748 0.77771348
59.312817 20.666983 -0.90796292 0.77781427
59.313675 20.565615 -0.92292023 0.77791464
59.314514 20.464355 -0.93787819 0.77801448
59.315376 20.363184 -0.95281905 0.77811366
32.61554 11.14127 -0.53212339 0.87120306
32.40929 11.015478 -0.53689098 0.87202477
32.296021 10.921865 -0.54311949 0.87250352
32.220718 10.841455 -0.54992414 0.87284189
32.175755 10.771503 -0.55721742 0.87306803
32.159985 10.711474 -0.564982 0.87318617
32.167728 10.659336 -0.57315826 0.87321746
32.199966 10.615283 -0.58176649 0.87315834
32.24638 10.57583 -0.59064424 0.87304688
32.292767 10.536221 -0.5995366 0.87293535
32.324017 10.491601 -0.60816163 0.87287933
32.355297 10.446943 -0.61679596 0.87282288
32.386646 10.402226 -0.62543625 0.87276602
32.417973 10.357441 -0.63408566 0.87270904
32.448704 10.312402 -0.64272779 0.87265402
32.466175 10.263105 -0.65110701 0.87264729
32.460541 10.206523 -0.65903169 0.87272489
32.532085 10.17414 -0.66853142 0.87251985
32.563744 10.129141 -0.67721778 0.87246054
32.594849 10.083897 -0.68591094 0.87240303
32.625973 10.038623 -0.69460583 0.87234527
32.657467 9.9933691 -0.70332175 0.8722859
32.688286 9.9478712 -0.71202886 0.87222874
32.719379 9.9023628 -0.72074634 0.87217045
32.750385 9.8568068 -0.72947294 0.87211215
32.781353 9.8111324 -0.73820722 0.87205386
32.811295 9.7650881 -0.74692655 0.87199908
32.841782 9.7191401 -0.75565994 0.8719421
32.869175 9.6722555 -0.76433915 0.87189603
32.898735 9.6259174 -0.77306992 0.87184197
32.927444 9.579277 -0.78178817 0.87179071
32.953762 9.5318947 -0.7904585 0.87174797
32.974457 9.482832 -0.79899549 0.87172532
33.006634 9.4370308 -0.80782163 0.87166083
33.050259 9.3943939 -0.81693447 0.87155455
33.107571 9.3555269 -0.8264069 0.87139857
33.168667 9.3175392 -0.83599073 0.87122875
59.347229 16.572754 -1.5102144 0.78149611
59.34803 16.474247 -1.5246245 0.78157514
59.348881 16.375898 -1.5390606 0.78165346
59.349689 16.277588 -1.5534484 0.78173143
59.350502 16.179277 -1.567832 0.78180885
59.351341 16.081055 -1.5822152 0.78188574
59.352173 15.982881 -1.5965768 0.7819621
59.352993 15.884755 -1.610936 0.78203797
59.353832 15.786728 -1.6252809 0.78211331
59.354641 15.68876 -1.6396116 0.78218818
59.355453 15.590761 -1.6539239 0.78226262
59.356293 15.49289 -1.66825 0.78233647
59.357113 15.395068 -1.682551 0.78240979
59.357933 15.297265 -1.6968379 0.78248268
59.358753 15.199541 -1.7111251 0.78255498
59.359585 15.101894 -1.7253979 0.78262681
59.360386 15.004287 -1.7396569 0.78269821
59.361206 14.906679 -1.7539088 0.78276908
59.362045 14.809179 -1.7681402 0.7828393
59.362846 14.711709 -1.7823722 0.78290921
59.363674 14.614297 -1.7965908 0.78297853
59.364494 14.516963 -1.8108095 0.78304732
59.365326 14.419619 -1.8249954 0.78311568
59.366135 14.322353 -1.8391994 0.78318352
59.366955 14.225126 -1.8533741 0.78325087
59.367748 14.127949 -1.8675566 0.78331774
59.368568 14.03082 -1.8817179 0.78338408
59.369396 13.93376 -1.8958743 0.78344989
59.370197 13.836709 -1.9100174 0.78351527
59.371017 13.739707 -1.9241477 0.78358012
59.03685 13.56581 -1.9273301 0.78472316
58.543713 13.356757 -1.9251382 0.78637958
58.083111 13.156718 -1.9237658 0.78793275
57.662834 12.967363 -1.9235154 0.78935677
57.248909 12.780771 -1.9232688 0.79076147
56.841274 12.597021 -1.923026 0.79214674
56.439476 12.415889 -1.9227865 0.79351413
47.294025 10.326923 -1.6223998 0.82387024
47.295052 10.250049 -1.6336112 0.82391953
47.296097 10.173242 -1.6448089 0.82396835
47.351448 10.108037 -1.6579138 0.82383358
47.740227 10.113339 -1.6827852 0.82257569
48.135345 10.11874 -1.7080603 0.82129884
37.318031 7.7840915 -1.3330035 0.85849184
37.219769 7.7031054 -1.3382537 0.85887802
37.105686 7.6191893 -1.3428811 0.85931939
36.999378 7.5372949 -1.3477371 0.85973299
36.900951 7.457324 -1.352827 0.86011863
36.753391 7.3678904 -1.3560535 0.86067647
36.738548 7.3052926 -1.3641216 0.86076772
36.723686 7.2427926 -1.3721908 0.86085862
36.70887 7.1803808 -1.3802475 0.86094904
36.991917 7.1757812 -1.3995584 0.85999405
36.981686 7.1139159 -1.4078346 0.86006784
36.169186 6.8990526 -1.3853711 0.86295789
36.152603 6.8373728 -1.393193 0.86305279
36.060024 6.7615528 -1.3980566 0.86341453
36.051292 6.7016015 -1.4061486 0.86348104
36.066196 6.6460547 -1.4151627 0.86346418
36.104752 6.5948238 -1.4251242 0.86336386
36.118118 6.5389156 -1.434064 0.86335176
36.117035 6.4804101 -1.4424438 0.86339015
37.593372 6.6845994 -1.5101675 0.85825706
37.713745 6.6451464 -1.5237967 0.85787231
38.569008 6.7336035 -1.5673395 0.85493058
39.28397 6.7950778 -1.6055423 0.85248595
39.343666 6.7419629 -1.6171328 0.85231465
39.336449 6.6773338 -1.6259899 0.85237467
40.287571 6.7739062 -1.6746769 0.84912443
41.582291 6.9245896 -1.7381558 0.8447091
41.582279 6.8576465 -1.7478154 0.84474474
41.582268 6.7906933 -1.757477 0.84478003
41.58226 6.7237792 -1.7671282 0.84481496
42.093071 6.7386913 -1.7986014 0.8431015
42.32024 6.7069821 -1.8181254 0.84235996
42.771313 6.7096872 -1.8474154 0.84085572
43.23175 6.7124705 -1.8773264 0.83932263
43.499352 6.684082 -1.8990197 0.83844745
43.266655 6.5787988 -1.8988811 0.8392719
43.036549 6.4746876 -1.8987439 0.84008759
42.80901 6.3717089 -1.8986083 0.84089464
43.126656 6.3497753 -1.9226691 0.83984667
43.574554 6.3457813 -1.9527142 0.8383581
44.08139 6.3488278 -1.9856142 0.83667302
44.2323 6.2996192 -2.0026348 0.83619452
44.004887 6.19665 -2.0024993 0.83699554
43.77977 6.0947556 -2.0023651 0.83778882
43.557083 5.9939451 -2.0022326 0.83857393
43.336723 5.8941307 -2.0021012 0.83935124
43.11858 5.7953711 -2.001971 0.84012097
42.902836 5.6976461 -2.0018425 0.84088266
42.689293 5.6009083 -2.0017149 0.8416369
42.477768 5.505156 -2.0015891 0.84238422
42.268528 5.4103317 -2.0014644 0.84312385
42.061409 5.316504 -2.0013406 0.84385622
41.856285 5.2235546 -2.0012186 0.84458178
41.653225 5.1315427 -2.0010974 0.84530038
41.452221 5.0404882 -2.0009775 0.84601188
41.253208 4.9502931 -2.000859 0.84671658
41.05608 4.8609667 -2.0007415 0.84741485
40.860893 4.7725 -2.0006251 0.84810644
40.667603 4.6849122 -2.00051 0.84879154
40.476322 4.5981445 -2.0003958 0.84946972
40.286682 4.5122166 -2.0002828 0.85014224
40.099087 4.4271193 -2.0001709 0.85080767
39.912971 4.342793 -2.0000601 0.85146803
39.728851 4.2592773 -1.9999502 0.85212153
39.54636 4.1765528 -1.9998415 0.85276932
39.365589 4.0945702 -1.9997337 0.8534112
39.186634 4.0133495 -1.999627 0.85404676
39.009251 3.9328711 -1.9995211 0.85467684
38.833424 3.8531346 -1.9994165 0.8553015
38.659195 3.7741015 -1.9993125 0.85592061
38.486664 3.6958301 -1.9992098 0.85653383
38.315628 3.6182225 -1.9991076 0.85714179
38.146137 3.541328 -1.9990066 0.8577444
37.978275 3.4651074 -1.9989065 0.85834128
37.811852 3.38958 -1.9988073 0.85893309
37.646801 3.3146973 -1.998709 0.85952014
37.483315 3.2404883 -1.9986115 0.86010164
37.321274 3.1669238 -1.9985148 0.86067808
37.16058 3.0939941 -1.998419 0.8612498
37.001362 3.0216894 -1.998324 0.86181629
36.84346 2.9500291 -1.99823 0.86237818
36.687027 2.8789356 -1.9981368 0.86293483
36.531822 2.808496 -1.9980441 0.86348718
36.377983 2.7386425 -1.9979523 0.86403465
36.225357 2.6693554 -1.9978614 0.86457789
36.074173 2.6006639 -1.9977713 0.865116
35.924133 2.5325389 -1.9976819 0.86565
35.775425 2.4649804 -1.9975932 0.86617929
35.628033 2.3979785 -1.9975053 0.86670393
35.481781 2.3315234 -1.997418 0.86722445
35.336674 2.2656446 -1.9973315 0.86774093
35.192825 2.2002637 -1.9972458 0.86825293
35.050102 2.1354101 -1.9971606 0.86876088
34.908588 2.0711327 -1.9970763 0.86926454
34.768238 2.0073438 -1.9969926 0.86976397
34.628891 1.9440527 -1.9969095 0.87025988
34.490776 1.8812695 -1.9968272 0.87075132
34.353783 1.818994 -1.9967455 0.87123877
34.217876 1.7571973 -1.9966644 0.87172228
34.082962 1.6958789 -1.9965839 0.87220228
33.949184 1.6350683 -1.9965042 0.8726781
33.816372 1.5746973 -1.996425 0.87315053
33.684692 1.5148242 -1.9963464 0.87361884
33.553959 1.4553808 -1.9962686 0.8740837
33.424213 1.3964062 -1.9961913 0.87454504
33.29554 1.3378613 -1.9961145 0.87500244
33.167786 1.2798047 -1.9960382 0.87545657
33.041077 1.2221777 -1.9959626 0.87590688
32.915306 1.1649414 -1.9958878 0.87635386
32.790512 1.1081836 -1.9958133 0.8767972
32.666576 1.0518359 -1.9957393 0.8772375
32.543617 0.99588865 -1.995666 0.87767422
32.421566 0.94035155 -1.9955932 0.87810761
32.300434 0.88526368 -1.9955211 0.87853765
32.180111 0.83055663 -1.9954493 0.87896478
32.060825 0.77623045 -1.995378 0.87938809
31.942251 0.72233397 -1.9953074 0.87980878
31.824682 0.6687988 -1.9952372 0.8802259
31.707808 0.61567384 -1.9951676 0.88064039
31.59186 0.56289059 -1.9950985 0.88105148
31.476742 0.51052731 -1.9950298 0.88145959
31.362484 0.45852539 -1.9949616 0.88186449
31.249008 0.40689453 -1.994894 0.88226652
31.136343 0.35559571 -1.9948268 0.88266563
31.024487 0.30470702 -1.99476 0.88306171
30.913374 0.25413084 -1.9946939 0.8834551
30.80308 0.20392577 -1.9946281 0.88384545
30.693472 0.15407225 -1.9945626 0.88423324
30.584751 0.10454101 -1.9944979 0.88461781
30.476645 0.055390622 -1.9944334 0.88500011
30.369389 0.0065332032 -1.9943695 0.8853792
30.262817 -0.041972656 -1.9943058 0.88575584
30.156977 -0.09015625 -1.9942428 0.88612974
30.05187 -0.13799804 -1.9941801 0.8865009
29.947485 -0.18552734 -1.9941179 0.88686943
29.843784 -0.2327539 -1.9940561 0.8872354
29.740726 -0.27963868 -1.9939946 0.88759899
29.638403 -0.32622069 -1.9939336 0.88795984
29.536743 -0.3725 -1.993873 0.88831824
29.435863 -0.41846678 -1.9938127 0.88867372
29.335472 -0.46412107 -1.9937528 0.88902736
29.235853 -0.50949216 -1.9936935 0.88937819
29.136919 -0.55458009 -1.9936345 0.88972646
29.038519 -0.59935546 -1.9935757 0.89007264
28.940765 -0.64385742 -1.9935174 0.8904165
28.843685 -0.68805665 -1.9934596 0.8907578
28.74724 -0.73198241 -1.993402 0.89109677
28.651352 -0.77562499 -1.9933448 0.8914336
28.556118 -0.81898433 -1.993288 0.89176798
28.461548 -0.86208004 -1.9932317 0.89209992
28.367435 -0.90489256 -1.9931756 0.89243013
28.274086 -0.9474414 -1.99312 0.89275748
28.181147 -0.98973632 -1.9930645 0.89308327
28.08893 -1.0317383 -1.9930094 0.89340633
27.997211 -1.0735059 -1.9929549 0.89372754
27.906029 -1.1149902 -1.9929004 0.89404672
27.815483 -1.1562598 -1.9928464 0.89436352
27.725483 -1.1972265 -1.9927927 0.89467824
27.635962 -1.2379687 -1.9927393 0.89499116
27.547123 -1.2784668 -1.9926863 0.89530152
27.458725 -1.3187305 -1.9926336 0.89561021
27.370844 -1.3587109 -1.9925812 0.89591694
27.283539 -1.3984765 -1.9925292 0.89622152
27.196733 -1.4379981 -1.9924774 0.89652413
27.110424 -1.4772949 -1.9924259 0.8968249
27.024681 -1.5163281 -1.9923748 0.89712358
26.939438 -1.5551465 -1.9923239 0.89742029
26.854683 -1.5937402 -1.9922733 0.89771521
26.770433 -1.6321191 -1.9922231 0.89800817
26.686646 -1.6702539 -1.9921731 0.89829934
26.603373 -1.7081738 -1.9921235 0.8985886
26.520521 -1.7458692 -1.9920741 0.89887625
26.438227 -1.7833399 -1.9920251 0.89916176
26.13723 -1.8054491 -1.9754101 0.90023851
25.584213 -1.808789 -1.9395556 0.9022305
25.133295 -1.8177441 -1.9112109 0.90385598
24.752455 -1.8304297 -1.888003 0.90522933
24.676636 -1.8649511 -1.8879577 0.90549302
24.601215 -1.8992676 -1.8879129 0.90575522
24.526245 -1.9333886 -1.8878682 0.90601569
24.451704 -1.9673241 -1.8878236 0.9062745
24.452318 -2.0071971 -1.8935696 0.906259
24.303852 -2.0346386 -1.8877354 0.9067874
24.230532 -2.0679784 -1.8876917 0.90704149
24.157602 -2.1011717 -1.8876482 0.90729403
24.085112 -2.1341698 -1.8876051 0.90754491
24.013012 -2.1669922 -1.887562 0.9077943
23.941263 -2.1996191 -1.8875192 0.90804231
23.869907 -2.23208 -1.8874768 0.90828878
23.799019 -2.2643554 -1.8874344 0.90853345
23.728451 -2.2964454 -1.8873924 0.90877688
23.658257 -2.3283887 -1.8873504 0.90901887
23.588423 -2.3601465 -1.8873087 0.90925944
23.518978 -2.391748 -1.8872675 0.90949845
23.449917 -2.4231544 -1.8872262 0.90973604
23.381226 -2.4544044 -1.8871853 0.90997213
23.312866 -2.485498 -1.8871446 0.91020697
23.244917 -2.5164063 -1.887104 0.91044021
23.17725 -2.5471387 -1.8870637 0.91067231
23.109955 -2.577744 -1.8870236 0.91090298
23.043081 -2.6081934 -1.8869836 0.91113204
22.976498 -2.6384668 -1.8869439 0.91135991
22.910248 -2.6685545 -1.8869044 0.91158652
22.84436 -2.6985157 -1.8868651 0.91181171
22.778774 -2.7283204 -1.8868259 0.91203564
22.71353 -2.7579882 -1.8867871 0.91225833
22.648657 -2.7874706 -1.8867484 0.91247952
22.584116 -2.8168261 -1.88671 0.9126994
22.519867 -2.8460252 -1.8866717 0.91291815
22.455933 -2.8750682 -1.8866335 0.91313565
22.392309 -2.9039452 -1.8865956 0.91335195
22.329018 -2.9327147 -1.8865579 0.91356689
22.266069 -2.9613183 -1.8865204 0.91378051
22.203403 -2.989795 -1.886483 0.91399306
22.141029 -3.0180957 -1.8864458 0.91420442
22.079008 -3.0462987 -1.8864088 0.91441441
22.01725 -3.074326 -1.886372 0.91462332
21.955786 -3.1022363 -1.8863353 0.9148311
21.894623 -3.1299999 -1.8862988 0.91503769
21.833822 -3.1576269 -1.8862627 0.91524285
21.773237 -3.1851075 -1.8862264 0.91544712
21.712994 -3.2124608 -1.8861904 0.91565007
21.653002 -3.2396777 -1.8861548 0.91585207
21.593287 -3.2667675 -1.8861192 0.91605288
21.533882 -3.2937207 -1.8860838 0.91625249
21.474731 -3.3205664 -1.8860486 0.9164511
21.415874 -3.3472557 -1.8860134 0.91664857
21.357347 -3.3738377 -1.8859785 0.91684473
21.299028 -3.4002733 -1.8859438 0.91704005
21.24098 -3.4265819 -1.8859091 0.9172343
21.183218 -3.4527733 -1.8858747 0.91742736
21.125717 -3.4788475 -1.8858404 0.91761941
21.068491 -3.5047948 -1.8858062 0.91781038
21.011538 -3.5306151 -1.8857723 0.91800028
20.954828 -3.5563183 -1.8857385 0.91818917
20.898373 -3.5819042 -1.8857049 0.9183771
20.842173 -3.607373 -1.8856714 0.91856396
20.786245 -3.6326952 -1.8856381 0.91874975
20.730532 -3.6579297 -1.8856049 0.91893464
20.675121 -3.6830273 -1.8855718 0.9191184
20.619926 -3.7080176 -1.8855389 0.91930127
20.564985 -3.7329004 -1.885506 0.91948307
20.510288 -3.7576756 -1.8854736 0.91966397
20.455824 -3.7823143 -1.8854411 0.91984385
20.401636 -3.8068554 -1.8854088 0.92002273
20.347641 -3.8312695 -1.8853766 0.92020077
20.293901 -3.8555956 -1.8853445 0.92037773
20.240385 -3.8797948 -1.8853126 0.92055386
20.187124 -3.9039061 -1.8852808 0.92072898
20.134047 -3.9278808 -1.8852493 0.92090333
20.081255 -3.9517674 -1.8852179 0.92107654
20.028667 -3.9755371 -1.8851864 0.92124891
19.976303 -3.9992089 -1.8851553 0.9214204
19.924126 -4.0227733 -1.8851242 0.9215911
19.872211 -4.0462403 -1.8850932 0.9217608
19.820541 -4.0695896 -1.8850623 0.92192948
19.769056 -4.0928516 -1.8850317 0.92209738
19.717768 -4.1159863 -1.8850012 0.92226458
19.666723 -4.1390529 -1.8849707 0.92243069
19.615892 -4.1620021 -1.8849405 0.92259598
19.565258 -4.1848435 -1.8849102 0.92276049
19.514868 -4.2075977 -1.8848802 0.92292398
19.464653 -4.2302637 -1.8848503 0.92308676
19.414663 -4.2528124 -1.8848205 0.92324865
19.364849 -4.2752638 -1.8847909 0.92340982
19.31522 -4.297627 -1.8847613 0.92357022
19.265882 -4.3199024 -1.8847319 0.92372948
19.216713 -4.3420701 -1.8847026 0.92388803
19.167719 -4.3641505 -1.8846735 0.92404586
19.1189 -4.3861327 -1.8846443 0.92420298
19.070297 -4.4080272 -1.8846153 0.9243592
19.021908 -4.4298339 -1.8845865 0.92451453
18.973715 -4.4515333 -1.8845577 0.92466915
18.925688 -4.4731445 -1.8845291 0.92482299
18.877855 -4.4946876 -1.8845007 0.92497611
18.830238 -4.5161328 -1.8844723 0.92512834
18.782759 -4.5374708 -1.8844439 0.92527997
18.735512 -4.5587401 -1.8844159 0.92543066
18.688414 -4.5798926 -1.8843877 0.92558074
18.641548 -4.600986 -1.8843598 0.92572993
18.594809 -4.6219921 -1.8843321 0.92587852
18.548296 -4.64291 -1.8843043 0.92602623
18.501947 -4.6637301 -1.8842767 0.92617321
18.455767 -4.6844821 -1.8842492 0.92631954
18.409771 -4.7051368 -1.8842218 0.92646509
18.36393 -4.7257128 -1.8841945 0.92661005
18.318275 -4.7461915 -1.8841673 0.92675424
18.272778 -4.7666111 -1.8841401 0.9268977
18.227486 -4.7869434 -1.8841131 0.9270404
18.182358 -4.8071971 -1.8840863 0.92718238
18.137388 -4.8273535 -1.8840595 0.92732376
18.092611 -4.8474412 -1.8840328 0.92746431
18.047955 -4.8674512 -1.8840063 0.92760432
18.00349 -4.887363 -1.8839798 0.92774361
17.959185 -4.9072165 -1.8839533 0.92788219
17.915033 -4.9269824 -1.8839271 0.92802012
17.871059 -4.9466796 -1.8839009 0.92815739
17.827246 -4.9662986 -1.8838748 0.92829394
17.783588 -4.9858398 -1.8838488 0.92842984
17.740103 -5.0052929 -1.8838229 0.92856503
17.696733 -5.0246778 -1.883797 0.92869979
17.653578 -5.0439844 -1.8837713 0.9288336
17.610527 -5.0632224 -1.8837457 0.928967
17.56764 -5.0823927 -1.8837202 0.92909968
17.524916 -5.1014843 -1.8836948 0.9292317
17.482359 -5.1204977 -1.8836694 0.92936307
17.439936 -5.1394434 -1.8836441 0.92949384
17.397652 -5.1583104 -1.8836188 0.92962408
17.355532 -5.1770997 -1.8835939 0.9297536
17.313555 -5.1958151 -1.8835689 0.92988253
17.271738 -5.2144823 -1.883544 0.9300108
17.230043 -5.2330713 -1.8835191 0.93013847
17.18849 -5.2515869 -1.8834944 0.93026567
17.147114 -5.2700338 -1.8834698 0.93039209
17.105848 -5.2884083 -1.8834453 0.93051803
17.064732 -5.3067088 -1.8834207 0.93064332
17.023741 -5.3249512 -1.8833963 0.93076813
16.98292 -5.3431296 -1.8833719 0.93089217
16.942251 -5.3612304 -1.8833477 0.93101567
16.901693 -5.3792725 -1.8833237 0.93113863
16.861275 -5.3972363 -1.8832997 0.931261
16.820976 -5.4151416 -1.8832755 0.93138289
16.780809 -5.4329786 -1.8832518 0.93150419
16.740814 -5.4507565 -1.8832279 0.93162483
16.700928 -5.4684668 -1.8832041 0.93174499
16.661186 -5.4860983 -1.8831805 0.9318645
16.621572 -5.5036764 -1.883157 0.93198353
16.582075 -5.5211911 -1.8831333 0.93210202
16.542709 -5.5386424 -1.88311 0.93221998
16.503487 -5.5560398 -1.8830867 0.93233728
16.46439 -5.5733738 -1.8830633 0.93245411
16.425415 -5.5906153 -1.8830401 0.9325704
16.386547 -5.6078272 -1.8830171 0.93268621
16.347851 -5.6249657 -1.8829941 0.93280137
16.309223 -5.6420507 -1.882971 0.93291616
16.270761 -5.6590624 -1.8829482 0.93303031
16.232416 -5.6760201 -1.8829254 0.93314391
16.194183 -5.692915 -1.8829026 0.93325704
16.15605 -5.7097607 -1.8828799 0.93336976
16.11809 -5.7265382 -1.8828573 0.93348175
16.080204 -5.7432518 -1.8828348 0.93359339
16.04245 -5.7599072 -1.8828123 0.9337045
16.004824 -5.7765136 -1.8827899 0.93381506
15.967309 -5.793047 -1.8827676 0.93392515
15.929888 -5.8095407 -1.8827453 0.93403482
15.892602 -5.8259764 -1.8827232 0.9341439
15.855453 -5.8423438 -1.882701 0.93425244
15.818383 -5.8586521 -1.8826791 0.93436062
15.78144 -5.874907 -1.8826572 0.93446827
20.462994 -7.6565914 -2.4468319 0.91581547
20.407349 -7.6745896 -2.445852 0.91598254
20.351898 -7.6925192 -2.4448774 0.91614884
20.296675 -7.710361 -2.4439054 0.9163143
20.241665 -7.7281346 -2.4429407 0.91647887
20.186871 -7.7458496 -2.4419761 0.91664267
20.13228 -7.7634764 -2.4410214 0.91680562
20.077906 -7.7810349 -2.4400668 0.91696781
20.023745 -7.7985349 -2.4391172 0.9171291
19.966293 -7.81457 -2.4377437 0.9173035
19.908129 -7.8301754 -2.4362674 0.91748077
19.85022 -7.8457322 -2.4347908 0.91765702
19.792562 -7.8612108 -2.4333246 0.91783231
19.730844 -7.8748827 -2.4313385 0.91802388
19.666761 -7.8874316 -2.429034 0.91822493
19.603022 -7.8999314 -2.4267418 0.91842467
19.539564 -7.9123631 -2.4244618 0.91862339
19.47644 -7.924746 -2.4221895 0.91882086
19.413609 -7.9370313 -2.4199347 0.91901731
19.351099 -7.9492774 -2.4176896 0.91921258
19.288843 -7.9614649 -2.4154537 0.91940683
19.226929 -7.9735742 -2.4132357 0.91959989
19.165258 -7.9856248 -2.4110236 0.919792
19.103951 -7.9976172 -2.4088254 0.91998285
19.042904 -8.009551 -2.406636 0.92017269
18.982143 -8.0214252 -2.404458 0.92036146
18.921675 -8.0332518 -2.4022934 0.92054909
18.861479 -8.0449896 -2.4001386 0.92073584
18.801586 -8.0566893 -2.3979938 0.92092139
18.741938 -8.0683298 -2.3958614 0.92110604
18.682602 -8.0799217 -2.3937378 0.9212895
18.62351 -8.0914354 -2.3916278 0.92147213
18.564722 -8.10289 -2.3895264 0.92165357
18.506195 -8.114316 -2.3874362 0.92183405
18.447905 -8.1256733 -2.3853545 0.92201364
18.389906 -8.1369629 -2.3832829 0.92219222
18.332153 -8.1482029 -2.3812273 0.92236978
18.286283 -8.1645899 -2.3806818 0.92249912
18.243481 -8.1821966 -2.3805258 0.922616
18.200787 -8.1997652 -2.3803711 0.92273241
18.158188 -8.2172651 -2.3802178 0.92284834
18.115776 -8.234726 -2.3800607 0.92296356
18.073462 -8.2521095 -2.3799112 0.92307836
18.031254 -8.2694626 -2.3797603 0.92319268
17.989174 -8.2867479 -2.3796098 0.92330647
17.947231 -8.3039846 -2.3794603 0.92341971
17.905396 -8.3211622 -2.3793149 0.92353249
17.863672 -8.3383007 -2.3791668 0.92364472
17.82206 -8.355381 -2.3790202 0.92375648
17.780577 -8.3724022 -2.3788784 0.9238677
17.738482 -8.3890333 -2.3786387 0.92398149
17.684668 -8.3999901 -2.3768086 0.92414349
17.631104 -8.4108887 -2.3749886 0.9243046
17.577728 -8.4217482 -2.3731759 0.924465
17.524605 -8.4325581 -2.3713717 0.92462438
17.471674 -8.4433298 -2.3695765 0.92478305
17.418999 -8.4540186 -2.3677886 0.92494088
17.366514 -8.4646826 -2.3660119 0.92509788
17.314253 -8.4752874 -2.3642387 0.92525405
17.262207 -8.4858541 -2.3624747 0.92540944
17.210356 -8.4963818 -2.3607213 0.92556405
17.158735 -8.5068407 -2.358973 0.92571783
17.107328 -8.5172606 -2.3572347 0.92587078
17.056112 -8.5276365 -2.3555014 0.92602301
17.005102 -8.5379686 -2.3537793 0.9261744
16.954327 -8.5482521 -2.3520596 0.92632496
16.903706 -8.5584812 -2.3503509 0.92647493
16.853306 -8.5686665 -2.3486536 0.92662406
16.80312 -8.5788136 -2.3469598 0.92677242
16.75313 -8.5889206 -2.3452713 0.92692
16.713217 -8.6040621 -2.3449779 0.92702526
16.685776 -8.6255617 -2.3464267 0.92707807
16.658394 -8.6470356 -2.347873 0.92713052
16.631016 -8.668457 -2.3493218 0.92718285
16.603685 -8.6898489 -2.3507683 0.92723489
16.576385 -8.7112112 -2.352211 0.92728668
16.549116 -8.7325439 -2.3536551 0.92733824
16.521879 -8.7538376 -2.3550966 0.92738956
16.494673 -8.7751026 -2.3565395 0.92744064
16.467499 -8.7963619 -2.3579788 0.92749143
16.440355 -8.8175583 -2.3594155 0.92754203
16.413227 -8.8387403 -2.3608546 0.9275924
16.386162 -8.859868 -2.3622878 0.92764246
16.359112 -8.8809814 -2.3637247 0.92769235
16.332094 -8.9020605 -2.365159 0.92774194
16.305117 -8.9231195 -2.3665862 0.9277913
16.278154 -8.9441261 -2.3680193 0.92784047
16.25123 -8.965127 -2.3694491 0.92788935
16.224325 -8.9860792 -2.3708811 0.92793804
16.197466 -9.0070066 -2.3723047 0.92798644
16.17062 -9.0279055 -2.373733 0.92803466
16.143803 -9.048769 -2.3751578 0.92808264
16.117025 -9.0695944 -2.376585 0.92813039
16.090288 -9.0904198 -2.378005 0.92817783
16.06354 -9.1111965 -2.3794322 0.92822522
16.036856 -9.1319532 -2.380851 0.92827219
16.010191 -9.1526709 -2.3822699 0.92831898
15.983544 -9.1733494 -2.3836911 0.92836559
15.956938 -9.1940231 -2.3851073 0.9284119
15.930361 -9.2146578 -2.3865263 0.92845803
15.903804 -9.2352686 -2.3879414 0.92850387
15.877255 -9.2558298 -2.3893602 0.92854965
15.850776 -9.2763815 -2.3907743 0.92859501
15.824291 -9.2968988 -2.3921883 0.92864025
15.797836 -9.3173971 -2.3936024 0.92868525
15.771425 -9.3378468 -2.3950102 0.92873001
15.745039 -9.3582907 -2.3964195 0.92877454
15.718661 -9.3786917 -2.3978348 0.92881888
15.679853 -9.3916063 -2.3973372 0.92891741
15.639311 -9.4033833 -2.3965583 0.9290235
15.598872 -9.4151125 -2.3957877 0.92912924
15.558564 -9.4267969 -2.3950171 0.92923445
15.517026 -9.4376459 -2.3940363 0.92934501
15.472734 -9.4466696 -2.3926229 0.9294678
15.428574 -9.4556837 -2.3912122 0.92958999
15.384575 -9.464653 -2.3898053 0.92971164
15.340708 -9.4735785 -2.388407 0.9298327
15.296987 -9.4824848 -2.3870113 0.92995322
15.253403 -9.4913378 -2.3856239 0.9300732
15.210005 -9.5001707 -2.3842371 0.93019247
15.166714 -9.5089455 -2.3828597 0.93031132
15.12354 -9.5177097 -2.3814812 0.9304297
15.080532 -9.5264158 -2.380115 0.93054742
15.037665 -9.5351019 -2.3787515 0.9306646
14.994931 -9.5437403 -2.3773894 0.9307813
14.952343 -9.5523434 -2.3760381 0.93089741
14.909873 -9.5609226 -2.3746846 0.93101305
14.867543 -9.5694675 -2.3733432 0.93112808
14.825336 -9.5779781 -2.3719995 0.9312427
14.783296 -9.5864544 -2.3706682 0.93135667
14.741352 -9.5948877 -2.3693357 0.93147022
14.69956 -9.6032953 -2.3680129 0.93158317
14.6579 -9.6116791 -2.3666904 0.93169564
14.616333 -9.6200237 -2.3653729 0.9318077
14.572006 -9.6263714 -2.3635814 0.93193233
14.523745 -9.6300392 -2.3611448 0.93207479
14.475727 -9.6336765 -2.3587155 0.93221635
14.427885 -9.6372948 -2.3563025 0.93235725
14.380254 -9.6409035 -2.3538966 0.93249732
14.332822 -9.6444874 -2.3515034 0.93263668
14.285551 -9.6480665 -2.3491187 0.93277538
14.238515 -9.6516066 -2.346751 0.93291324
14.191646 -9.6551466 -2.3443873 0.93305045
14.14498 -9.6586666 -2.342042 0.93318695
14.098506 -9.6621628 -2.3397014 0.93332267
14.052217 -9.6656446 -2.3373747 0.93345773
14.006093 -9.6691208 -2.3350563 0.93359214
13.96018 -9.6725683 -2.3327506 0.93372571
13.914443 -9.6760006 -2.3304584 0.93385869
13.868881 -9.6794186 -2.3281734 0.93399101
13.82351 -9.682827 -2.3258958 0.93412256
13.778296 -9.6862106 -2.3236306 0.93425351
13.73206 -9.6887207 -2.3211722 0.93438935
13.682387 -9.6886473 -2.3181076 0.93454129
13.639565 -9.6932716 -2.3161793 0.93466169
13.59686 -9.697876 -2.3142607 0.93478161
13.55435 -9.7024412 -2.3123534 0.93490088
13.511963 -9.7070065 -2.3104486 0.93501961
13.469741 -9.7115431 -2.3085558 0.93513775
13.427675 -9.7160788 -2.3066721 0.93525523
13.385742 -9.7205811 -2.3047919 0.93537217
13.343969 -9.7250776 -2.3029227 0.93548852
13.302358 -9.7295361 -2.3010645 0.93560433
13.260888 -9.7339935 -2.2992101 0.93571949
13.219565 -9.7384176 -2.2973645 0.93583417
13.178364 -9.7428322 -2.2955263 0.93594831
13.137324 -9.7472363 -2.2936952 0.9360618
13.09644 -9.7516108 -2.2918718 0.93617475
13.055688 -9.7559662 -2.2900569 0.93628716
13.015082 -9.7603025 -2.2882509 0.93639904
12.974614 -9.7646332 -2.2864509 0.93651038
12.934287 -9.7689495 -2.2846618 0.93662107
12.894101 -9.7732325 -2.2828753 0.93673134
12.854048 -9.7775049 -2.2811 0.93684107
12.814145 -9.7817669 -2.2793307 0.93695015
12.774365 -9.7859955 -2.2775688 0.93705881
12.734712 -9.7902241 -2.2758133 0.93716693
12.695195 -9.7944336 -2.2740638 0.93727452
12.655825 -9.7986183 -2.2723279 0.93738157
12.616582 -9.8027925 -2.270597 0.93748814
12.577466 -9.8069429 -2.2688708 0.93759418
12.538496 -9.8110838 -2.2671497 0.93769968
12.499643 -9.8152046 -2.2654386 0.9378047
12.460933 -9.8193111 -2.2637372 0.93790913
12.422334 -9.8234081 -2.2620406 0.93801314
12.383872 -9.8274851 -2.2603443 0.93811661
12.345532 -9.8315382 -2.2586625 0.93821961
12.307319 -9.8355856 -2.2569859 0.93832213
12.269233 -9.8396044 -2.2553191 0.93842417
12.231264 -9.8436279 -2.2536521 0.93852568
12.193427 -9.8476219 -2.2520001 0.93862671
12.155707 -9.8516016 -2.2503481 0.93872726
12.118139 -9.855566 -2.2487059 0.93882728
12.080649 -9.8595114 -2.2470686 0.93892694
12.043281 -9.8634472 -2.2454412 0.93902606
12.006064 -9.8673677 -2.243819 0.93912464
11.968946 -9.871274 -2.2422013 0.93922287
11.931943 -9.8751755 -2.2405889 0.93932056
11.895059 -9.8790426 -2.238991 0.93941784
11.861264 -9.8853951 -2.237951 0.93949991
11.827856 -9.8919287 -2.236975 0.93958026
11.794497 -9.8984661 -2.2359991 0.93966025
11.761245 -9.9049702 -2.235028 0.93973988
11.728076 -9.9114695 -2.2340569 0.93981916
11.694981 -9.9179487 -2.2330909 0.93989807
11.661992 -9.9243841 -2.2321346 0.93997657
11.625171 -9.927495 -2.2304294 0.94007427
11.587241 -9.9295311 -2.2284942 0.94017768
11.549418 -9.9315424 -2.2265639 0.94028062
11.511763 -9.9335546 -2.2246437 0.94038296
11.474184 -9.9355659 -2.2227283 0.94048494
11.436787 -9.9375534 -2.2208228 0.94058627
11.399467 -9.9395409 -2.2189269 0.94068724
11.3623 -9.9415083 -2.217041 0.94078767
11.325253 -9.9434814 -2.2151554 0.94088763
11.288325 -9.9454346 -2.2132843 0.94098711
11.251504 -9.9473829 -2.2114182 0.94108611
11.214824 -9.9493208 -2.2095568 0.94118464
11.178257 -9.9512453 -2.2077055 0.94128269
11.141821 -9.9531736 -2.2058589 0.9413802
11.105488 -9.9550734 -2.2040274 0.94147736
11.069292 -9.9569721 -2.2021956 0.94157398
11.033213 -9.9588623 -2.2003739 0.94167012
10.997231 -9.9607468 -2.1985619 0.9417659
10.961371 -9.9626265 -2.1967549 0.94186115
10.925634 -9.9644918 -2.1949527 0.94195592
10.89001 -9.9663429 -2.1931608 0.94205028
10.854497 -9.9681978 -2.1913733 0.94214422
10.819101 -9.9700336 -2.1895959 0.94223768
10.783813 -9.9718695 -2.1878233 0.94233066
10.748632 -9.973691 -2.1860557 0.94242328
10.713593 -9.9755077 -2.184298 0.94251531
10.678633 -9.977314 -2.1825452 0.94260705
10.643794 -9.9791107 -2.1808021 0.9426983
10.609057 -9.9808931 -2.179064 0.94278914
10.574424 -9.9826708 -2.177336 0.94287956
10.539917 -9.9844484 -2.1756127 0.9429695
10.505493 -9.9862156 -2.1738944 0.94305903
10.471201 -9.9879732 -2.1721809 0.94314814
10.436996 -9.9897118 -2.1704774 0.94323689
10.402895 -9.9914551 -2.1687837 0.94332516
10.368906 -9.9931927 -2.1670899 0.94341302
10.335024 -9.9949169 -2.1654062 0.94350046
10.301226 -9.9966259 -2.1637273 0.94358754
10.267553 -9.9983301 -2.1620581 0.94367421
10.233974 -10.000034 -2.1603889 0.9437604
10.200483 -10.001723 -2.1587298 0.94384629
10.167099 -10.003413 -2.1570754 0.9439317
10.133813 -10.005088 -2.155431 0.94401675
10.10062 -10.006758 -2.1537917 0.94410139
10.067544 -10.008423 -2.1521568 0.94418561
10.034555 -10.010068 -2.1505322 0.94426948
10.001655 -10.011719 -2.1489074 0.94435298
9.9717922 -10.016294 -2.1479189 0.94442016
9.9461327 -10.025024 -2.1478357 0.94446468
9.9205122 -10.033765 -2.1477473 0.94450885
9.8949261 -10.042465 -2.1476641 0.9445529
9.8693895 -10.051152 -2.1475856 0.94459671
9.8438911 -10.059824 -2.1475024 0.94464028
9.8184175 -10.068491 -2.147419 0.94468367
9.7929831 -10.077133 -2.1473432 0.94472682
9.7675924 -10.085761 -2.1472673 0.9447698
9.7422314 -10.09437 -2.1471889 0.9448126
9.7169285 -10.102963 -2.1471155 0.94485509
9.6916351 -10.111543 -2.1470423 0.94489747
9.6663818 -10.120102 -2.1469738 0.94493961
9.6411715 -10.128662 -2.1469004 0.94498152
9.6148338 -10.135971 -2.1465776 0.94502968
9.5855999 -10.140156 -2.1455894 0.94509399
9.5564308 -10.144326 -2.1446111 0.945158
9.5273285 -10.148486 -2.1436327 0.94522178
9.498291 -10.152627 -2.1426592 0.94528526
9.4693117 -10.156762 -2.1416907 0.94534844
9.4404144 -10.160884 -2.1407223 0.94541126
9.4115667 -10.164985 -2.1397588 0.94547391
9.3827686 -10.169086 -2.1387999 0.94553626
9.3540478 -10.173174 -2.1378415 0.9455983
9.3253908 -10.177246 -2.1368878 0.94566011
9.2967968 -10.181289 -2.1359389 0.94572163
9.2682667 -10.185342 -2.1349905 0.94578284
9.2397852 -10.18937 -2.1340463 0.94584382
9.2113667 -10.193388 -2.1331077 0.94590455
9.1830177 -10.197412 -2.1321688 0.94596493
9.1547308 -10.201406 -2.1312349 0.94602507
9.1265039 -10.20539 -2.1303058 0.94608492
9.0983248 -10.209355 -2.1293817 0.94614458
9.0702295 -10.21332 -2.1284528 0.94620389
9.0421772 -10.21727 -2.1275334 0.94626296
9.014184 -10.221191 -2.1266193 0.94632185
8.9862404 -10.225137 -2.1257002 0.94638038
8.958354 -10.229038 -2.1247909 0.94643867
8.930542 -10.232944 -2.1238818 0.94649673
8.9027834 -10.236831 -2.1229775 0.94655448
8.8750734 -10.240713 -2.1220779 0.946612
8.8474264 -10.244575 -2.1211786 0.94666928
8.8198385 -10.248432 -2.1202817 0.94672626
8.7922993 -10.252271 -2.1193895 0.94678301
8.7648239 -10.256104 -2.1185002 0.94683951
8.7374067 -10.259922 -2.1176155 0.94689572
8.7100391 -10.26373 -2.1167309 0.94695169
8.6827192 -10.267544 -2.1158512 0.94700742
8.6554689 -10.271323 -2.1149716 0.94706291
8.6282568 -10.275092 -2.1141019 0.94711816
8.6011086 -10.278872 -2.1132271 0.94717312
8.5740042 -10.282621 -2.1123621 0.9472279
8.5469723 -10.286362 -2.1114924 0.94728237
8.5199709 -10.290092 -2.1106324 0.94733667
8.4930468 -10.293823 -2.1097727 0.94739062
8.466157 -10.297529 -2.1089175 0.94744438
8.4393215 -10.301221 -2.1080625 0.94749796
8.4125338 -10.304916 -2.1072173 0.94755125
8.3858156 -10.308589 -2.1063673 0.94760424
8.3591309 -10.312256 -2.1055222 0.94765705
8.3325043 -10.315913 -2.104682 0.94770962
8.3059378 -10.319555 -2.1038418 0.94776195
8.2794094 -10.323198 -2.1030066 0.94781405
8.2532759 -10.327241 -2.1022594 0.94786382
8.2304926 -10.335444 -2.1023631 0.94789296
8.2077436 -10.343608 -2.1024621 0.94792193
8.1850042 -10.351777 -2.1025658 0.94795078
8.1622896 -10.359937 -2.1026697 0.94797945
8.1395941 -10.368076 -2.1027737 0.94800794
8.1169281 -10.376216 -2.1028824 0.94803625
8.0942678 -10.384321 -2.1029913 0.94806451
8.0716553 -10.392426 -2.1031001 0.94809246
8.0490522 -10.400522 -2.1032088 0.9481203
8.0264645 -10.408613 -2.1033177 0.94814795
8.0039015 -10.416675 -2.1034315 0.94817555
7.9813476 -10.424731 -2.1035452 0.94820291
7.9588428 -10.432778 -2.1036589 0.94823009
7.9363427 -10.440825 -2.1037726 0.94825709
7.9138522 -10.448843 -2.1038864 0.94828403
7.8913965 -10.456855 -2.1040051 0.94831073
7.8689599 -10.464858 -2.1041238 0.94833726
7.8465281 -10.472841 -2.1042426 0.94836372
7.8241258 -10.48082 -2.1043611 0.94839001
7.8017478 -10.488784 -2.1044846 0.94841605
7.7793894 -10.496743 -2.1046083 0.94844198
7.7570357 -10.504683 -2.104732 0.94846779
