# .PCD v0.7 - Point Cloud Data file format
VERSION 0.7
FIELDS x y z intensity
SIZE 4 4 4 4
TYPE F F F F
COUNT 1 1 1 1
WIDTH 1149
HEIGHT 1
VIEWPOINT 0 0 0 1 0 0 0
POINTS 1149
DATA ascii
5.6976171 14.546997 -1.7577444 0.93905026
5.7296286 14.557158 -1.7571512 0.93897152
5.7617135 14.567339 -1.7565632 0.93889248
5.7938819 14.577563 -1.7559705 0.93881303
5.8261375 14.587788 -1.7553774 0.93873328
5.8584766 14.598051 -1.7547798 0.93865311
5.8908935 14.60833 -1.754187 0.93857265
5.9233885 14.618598 -1.7535894 0.93849194
5.9559765 14.628925 -1.7529919 0.9384107
5.9886279 14.639272 -1.7523943 0.93832922
6.0213962 14.649633 -1.7517921 0.93824732
6.0542283 14.660029 -1.7511898 0.93816507
6.0871387 14.67042 -1.7505877 0.93808258
6.1201315 14.680869 -1.7499856 0.93799955
6.1532321 14.691318 -1.7493787 0.93791628
6.1868114 14.702783 -1.7488894 0.93782854
6.2219286 14.71767 -1.7488022 0.93772656
6.2571483 14.732597 -1.748715 0.9376241
6.2924852 14.747543 -1.7486256 0.93752128
6.3279395 14.762558 -1.7485362 0.93741786
6.3635058 14.777607 -1.7484493 0.93731403
6.3991942 14.792709 -1.7483577 0.93720973
6.4349704 14.807817 -1.7482661 0.93710506
6.4708886 14.823012 -1.7481794 0.93699974
6.5069141 14.838223 -1.748088 0.936894
6.543066 14.853486 -1.7479967 0.93678778
6.5793066 14.868793 -1.7479054 0.93668115
6.6157031 14.884151 -1.7478142 0.93657392
6.6522021 14.899565 -1.7477231 0.93646616
6.688828 14.914995 -1.7476321 0.93635803
6.7255807 14.930488 -1.7475412 0.93624938
6.7624412 14.946025 -1.7474455 0.93614018
6.799448 14.961631 -1.7473547 0.93603039
6.8365722 14.97727 -1.747264 0.93592018
6.8738036 14.992939 -1.7471685 0.93580949
6.9111719 15.008667 -1.7470781 0.93569827
6.9486523 15.024428 -1.7469828 0.93558657
6.986279 15.040254 -1.7468877 0.93547428
7.0240426 15.056132 -1.7467926 0.93536144
7.0618992 15.072061 -1.7466999 0.93524814
7.0999169 15.088041 -1.7466074 0.93513429
7.1380563 15.104076 -1.7465103 0.93501985
7.1763182 15.120131 -1.7464131 0.93490499
7.2147312 15.136254 -1.7463185 0.93478948
7.2532711 15.152446 -1.7462239 0.93467343
7.2919335 15.168642 -1.7461294 0.93455696
7.3307519 15.184937 -1.7460302 0.93443984
7.3696823 15.201264 -1.7459359 0.93432218
7.4087596 15.217641 -1.7458369 0.93420398
7.4479928 15.234097 -1.745738 0.93408513
7.4873338 15.250576 -1.7456441 0.9339658
7.5268502 15.267134 -1.7455453 0.93384582
7.5664697 15.283706 -1.7454466 0.93372542
7.6062498 15.300361 -1.745348 0.93360436
7.6461668 15.31707 -1.7452496 0.93348271
7.6862302 15.333838 -1.7451513 0.93336046
7.72646 15.350649 -1.7450482 0.93323767
7.7667966 15.367524 -1.7449501 0.93311429
7.8073096 15.384478 -1.7448471 0.93299019
7.8479686 15.401469 -1.7447491 0.93286556
7.8887596 15.41851 -1.7446464 0.93274039
7.929697 15.43561 -1.7445488 0.93261462
7.9707861 15.452754 -1.7444463 0.93248826
8.0120411 15.46998 -1.7443439 0.93236125
8.053442 15.48728 -1.7442416 0.93223351
8.094985 15.504589 -1.7441393 0.93210536
8.1367188 15.522026 -1.7440374 0.93197638
8.1785841 15.539482 -1.7439305 0.93184686
8.2205858 15.556982 -1.7438287 0.9317168
8.2628021 15.57457 -1.743727 0.93158597
8.3051167 15.592202 -1.7436204 0.9314546
8.3476171 15.609946 -1.7435141 0.9313224
8.3902779 15.627709 -1.7434127 0.93118972
8.4331007 15.645536 -1.7433065 0.93105638
8.4760885 15.663432 -1.7432005 0.93092233
8.5192385 15.681406 -1.7430949 0.93078762
8.5625677 15.699448 -1.7429842 0.93065214
8.6060448 15.717514 -1.7428786 0.93051624
8.6497068 15.735683 -1.7427729 0.93037945
8.6935205 15.753906 -1.7426627 0.93024206
8.7375288 15.772212 -1.7425573 0.93010396
8.7817039 15.790561 -1.7424471 0.9299652
8.8260498 15.808999 -1.7423373 0.92982566
8.8705511 15.827499 -1.7422274 0.92968553
8.9152441 15.846049 -1.7421175 0.92954469
8.9601173 15.864702 -1.742008 0.92940301
9.0051708 15.883423 -1.7418987 0.92926067
9.0503855 15.902187 -1.7417892 0.92911774
9.0958204 15.92104 -1.7416753 0.92897391
9.1413813 15.939956 -1.7415662 0.92882949
9.1871576 15.95893 -1.7414523 0.92868435
9.2331295 15.977998 -1.7413386 0.92853838
9.2792768 15.997153 -1.7412251 0.92839164
9.3256149 16.016386 -1.7411115 0.92824411
9.3721285 16.035664 -1.7409984 0.92809594
9.4188375 16.055023 -1.7408851 0.92794704
9.4657421 16.074457 -1.740772 0.92779732
9.5128517 16.093985 -1.7406542 0.92764676
9.560132 16.113579 -1.7405417 0.92749554
9.6076221 16.133251 -1.7404242 0.92734349
9.6553268 16.153013 -1.7403066 0.92719054
9.7031927 16.172836 -1.7401894 0.927037
9.7512741 16.192739 -1.7400725 0.92688257
9.7995796 16.212744 -1.7399555 0.92672724
9.8480854 16.232817 -1.7398338 0.92657119
9.8967915 16.252983 -1.7397172 0.92641425
9.9456882 16.273197 -1.7395959 0.92625666
9.9948092 16.293554 -1.7394747 0.92609805
10.044121 16.313921 -1.7393584 0.92593879
10.062988 16.284771 -1.733945 0.92599559
10.063173 16.225586 -1.7253522 0.92618376
10.06335 16.166758 -1.7168078 0.92637068
10.063525 16.108213 -1.7083067 0.92655647
10.063711 16.049995 -1.6998509 0.92674112
10.063882 15.99208 -1.6914418 0.92692465
10.07184 15.946801 -1.6843803 0.9270528
10.106137 15.943281 -1.6817338 0.92699689
10.154126 15.961254 -1.6813442 0.92684597
10.202344 15.979272 -1.6809536 0.92669433
10.250732 15.997368 -1.6805611 0.92654186
10.299575 16.015903 -1.6802058 0.92638701
10.349004 16.035137 -1.6799126 0.92622864
10.398662 16.054424 -1.6796182 0.9260695
10.448505 16.07379 -1.679323 0.92590952
10.498584 16.093252 -1.6790261 0.92574865
10.548886 16.112803 -1.678728 0.92558682
10.599384 16.132421 -1.6784288 0.92542428
10.650117 16.152134 -1.678128 0.92526084
10.701059 16.171928 -1.6778262 0.92509651
10.752251 16.19182 -1.6775229 0.92493123
10.803652 16.211773 -1.6772186 0.92476517
10.855268 16.231815 -1.6769129 0.92459822
10.907139 16.251947 -1.6766059 0.92443031
10.959229 16.272163 -1.6762977 0.92426151
11.011558 16.292494 -1.6759877 0.92409176
11.064092 16.312866 -1.6756769 0.92392129
11.116889 16.333364 -1.6753645 0.92374969
11.169922 16.353935 -1.6750507 0.92357725
11.223188 16.374619 -1.6747354 0.9234038
11.276718 16.395376 -1.6744189 0.9232294
11.330463 16.416235 -1.6741008 0.9230541
11.384473 16.437187 -1.6737813 0.92287779
11.43873 16.458221 -1.6734606 0.92270052
11.493222 16.47937 -1.6731381 0.92252231
11.547974 16.50058 -1.6728153 0.92234319
11.602988 16.521919 -1.6724908 0.92216295
11.658271 16.543383 -1.6721644 0.92198157
11.713808 16.564907 -1.6718371 0.92179936
11.769599 16.586542 -1.6715082 0.92161608
11.825654 16.608295 -1.6711774 0.92143172
11.882548 16.630922 -1.6709273 0.92124277
11.940181 16.654331 -1.6707401 0.92104977
11.9981 16.677837 -1.6705525 0.92085564
12.056298 16.701464 -1.6703638 0.92066044
12.114824 16.725229 -1.6701739 0.92046398
12.173594 16.749086 -1.6699834 0.92026651
12.232671 16.773066 -1.6697918 0.92006791
12.29206 16.797153 -1.6695994 0.91986805
12.351738 16.821386 -1.6694058 0.91966707
12.411704 16.845697 -1.6692117 0.91946507
12.988613 17.568935 -1.7381502 0.91606182
13.053608 17.597105 -1.738197 0.91583782
13.11894 17.625395 -1.7382438 0.91561264
13.184658 17.653856 -1.738291 0.9153859
13.250698 17.682436 -1.7383382 0.91515797
13.3171 17.711195 -1.7383859 0.91492862
13.383886 17.740126 -1.7384338 0.91469771
13.45103 17.769184 -1.738482 0.91446549
13.518569 17.798443 -1.7385304 0.91423166
13.586435 17.827787 -1.738579 0.9139967
13.654731 17.857363 -1.738628 0.91375995
13.723369 17.88706 -1.7386774 0.91352195
13.792421 17.916973 -1.7387267 0.91328228
13.861835 17.946991 -1.7387766 0.91304135
13.931675 17.977245 -1.7388265 0.91279858
14.00187 18.007603 -1.7388769 0.91255462
14.072519 18.038202 -1.7389276 0.91230875
14.14353 18.06892 -1.7389785 0.91206157
14.214975 18.099857 -1.7390298 0.91181266
14.286811 18.130938 -1.7390813 0.91156232
14.359087 18.162222 -1.7391331 0.91131026
14.431733 18.193632 -1.7391851 0.91105682
14.504844 18.225264 -1.7392377 0.91080153
14.578403 18.257124 -1.7392905 0.91054446
14.652363 18.289116 -1.7393434 0.91028595
14.726757 18.321318 -1.7393968 0.91002572
14.801601 18.353666 -1.7394503 0.90976387
14.876904 18.386274 -1.7395043 0.90950012
14.87726 18.326197 -1.7307876 0.90967095
14.877524 18.266235 -1.7220947 0.90984154
14.877792 18.206547 -1.7134448 0.91001105
14.878061 18.147076 -1.7048244 0.91017985
14.878325 18.087881 -1.6962411 0.91034758
14.878579 18.028887 -1.6876925 0.91051465
14.878847 17.970161 -1.6791801 0.91068071
14.879107 17.911646 -1.6707007 0.91084599
14.87937 17.853384 -1.6622523 0.91101032
14.879614 17.795361 -1.653843 0.91117388
14.879883 17.737583 -1.6454654 0.91133642
14.880127 17.68 -1.6371243 0.91149837
14.88039 17.622681 -1.628813 0.9116593
14.880644 17.565556 -1.6205343 0.91181946
14.880898 17.508701 -1.6122924 0.91197872
14.881152 17.452021 -1.6040766 0.91213727
14.881411 17.395596 -1.5958974 0.91229492
14.88165 17.339375 -1.5877481 0.91245186
14.881904 17.283379 -1.5796304 0.91260791
14.882148 17.227592 -1.5715475 0.91276324
14.882402 17.172045 -1.5634947 0.91291767
14.882636 17.116699 -1.555473 0.91307139
14.882891 17.061592 -1.5474805 0.91322422
14.883144 17.006655 -1.5395203 0.91337639
14.883389 16.951942 -1.5315887 0.91352773
14.883623 16.897455 -1.5236883 0.91367829
14.883867 16.843168 -1.5158185 0.91382813
14.884101 16.789076 -1.507979 0.91397721
14.88435 16.735176 -1.5001624 0.91412556
14.884584 16.681509 -1.4923795 0.91427308
14.884814 16.628021 -1.4846213 0.91441995
14.885063 16.57477 -1.4769131 0.91456592
14.885293 16.521685 -1.4692067 0.9147113
14.885527 16.468809 -1.4615544 0.9148559
14.885766 16.416122 -1.453904 0.91499978
14.886001 16.363638 -1.4462909 0.91514295
14.88623 16.311342 -1.4387192 0.91528541
14.886459 16.259228 -1.4311655 0.91542715
14.886694 16.207335 -1.4236369 0.91556811
14.886929 16.1556 -1.4161358 0.91570848
14.887153 16.104073 -1.408663 0.91584808
14.887392 16.052734 -1.4012195 0.91598696
14.887612 16.001568 -1.3938005 0.91612524
14.887832 15.950601 -1.3864113 0.91626281
14.888062 15.89979 -1.3790402 0.91639972
14.888286 15.84917 -1.3717036 0.91653591
14.888506 15.79875 -1.364385 0.91667145
14.888735 15.748496 -1.3570995 0.91680628
14.888965 15.698427 -1.3498383 0.91694045
14.889179 15.64854 -1.3426028 0.91707397
14.8894 15.598827 -1.3353904 0.91720682
14.889619 15.549292 -1.3282031 0.91733903
14.889843 15.499902 -1.3210384 0.91747057
14.890059 15.450717 -1.3139017 0.91760153
14.890273 15.401694 -1.3067913 0.91773176
14.890503 15.352832 -1.2997073 0.9178614
14.890713 15.304135 -1.2926447 0.91799045
14.890927 15.25562 -1.2856058 0.91811883
14.891147 15.20728 -1.2785925 0.91824651
14.891357 15.159091 -1.2716005 0.91837364
14.891572 15.111059 -1.264632 0.91850019
14.891787 15.063203 -1.2576894 0.91862607
14.891992 15.015508 -1.2507678 0.91875136
14.892201 14.967958 -1.2438664 0.91887611
14.892412 14.920571 -1.2369932 0.91900021
14.892622 14.873363 -1.2301409 0.91912365
14.892832 14.826313 -1.2233112 0.91924649
14.893056 14.779404 -1.2165059 0.9193688
14.893251 14.732661 -1.2097131 0.91949052
14.893452 14.686074 -1.2029582 0.91961163
14.893672 14.639644 -1.1962196 0.91973209
14.893877 14.593373 -1.1895009 0.91985202
14.894082 14.547251 -1.1828064 0.91997135
14.894282 14.501265 -1.1761317 0.9200902
14.894487 14.45544 -1.1694722 0.92020839
14.894687 14.409775 -1.1628417 0.92032605
14.894887 14.364233 -1.1562338 0.92044318
14.895087 14.318843 -1.1496433 0.9205597
14.895297 14.273627 -1.1430765 0.92067564
14.895493 14.228544 -1.1365268 0.92079103
14.895698 14.183599 -1.1299938 0.92090595
14.895888 14.138808 -1.1234891 0.92102027
14.896098 14.094145 -1.1170007 0.921134
14.896298 14.049639 -1.11053 0.92124718
14.896494 14.005263 -1.1040914 0.9213599
14.896694 13.961016 -1.0976629 0.92147213
14.896884 13.916933 -1.0912576 0.92158371
14.897079 13.872973 -1.0848728 0.92169482
14.89728 13.829169 -1.0785044 0.92180538
14.89747 13.785483 -1.0721617 0.92191541
14.897655 13.741939 -1.0658348 0.92202497
14.897856 13.698535 -1.0595266 0.92213398
14.898051 13.655249 -1.0532346 0.92224246
14.898242 13.612119 -1.0469667 0.92235041
14.898427 13.569101 -1.0407153 0.92245793
14.898627 13.526235 -1.0344819 0.92256486
14.898818 13.483491 -1.0282639 0.92267132
14.898998 13.440849 -1.022065 0.92277735
14.899194 13.398378 -1.0158898 0.9228828
14.89938 13.35602 -1.0097321 0.92298776
14.899555 13.313774 -1.0035882 0.92309231
14.899755 13.271689 -0.99746722 0.9231962
14.899941 13.229707 -0.9913612 0.92329973
14.900131 13.187861 -0.98527616 0.92340273
14.900312 13.146123 -0.97920173 0.92350531
14.900493 13.104527 -0.97314751 0.92360735
14.900693 13.063056 -0.96711934 0.92370886
14.900868 13.021685 -0.96110219 0.92381001
14.901045 12.980444 -0.95509869 0.92391068
14.901235 12.939336 -0.9491114 0.92401075
14.901416 12.898344 -0.94314957 0.92411047
14.901601 12.857471 -0.93720043 0.92420965
14.901777 12.816699 -0.93126732 0.92430848
14.901973 12.776064 -0.92535126 0.92440677
14.902153 12.735557 -0.91944897 0.92450458
14.902328 12.695147 -0.91356921 0.92460197
14.902499 12.654843 -0.90770084 0.92469901
14.90268 12.614692 -0.90185344 0.92479545
14.902856 12.574629 -0.89601898 0.92489147
14.903027 12.534668 -0.89019954 0.92498714
14.903217 12.494853 -0.88440084 0.92508221
14.903393 12.455127 -0.87861264 0.92517698
14.90356 12.415517 -0.87284094 0.92527127
14.90374 12.37603 -0.86708736 0.92536509
14.903906 12.336636 -0.86135006 0.92545855
14.904092 12.297378 -0.85562444 0.92555141
14.904272 12.258203 -0.84991336 0.92564398
14.904448 12.219145 -0.84422207 0.92573607
14.904613 12.18019 -0.83854634 0.9258278
14.904785 12.141357 -0.83288437 0.92591906
14.904961 12.102612 -0.82723355 0.92600989
14.905131 12.063989 -0.82159656 0.92610037
14.905302 12.025474 -0.81598806 0.92619032
14.905474 11.987045 -0.81038314 0.92627996
14.905644 11.948745 -0.80478925 0.92636913
14.90581 11.910522 -0.79921806 0.92645794
14.905981 11.872421 -0.79365796 0.92654628
14.906147 11.834424 -0.78810853 0.92663419
14.906318 11.796518 -0.78257918 0.92672181
14.906489 11.758711 -0.77706093 0.92680895
14.90665 11.721021 -0.77156258 0.92689568
14.906826 11.683413 -0.76607382 0.92698205
14.906997 11.645923 -0.76059806 0.92706794
14.907158 11.60851 -0.7551344 0.92715353
14.907329 11.571216 -0.74969113 0.9272387
14.90749 11.534014 -0.74425763 0.92732346
14.907646 11.4969 -0.73883337 0.92740792
14.907822 11.459888 -0.73342663 0.92749184
14.907983 11.422978 -0.7280367 0.92757547
14.908139 11.386147 -0.72266018 0.92765874
14.90831 11.349443 -0.71729523 0.92774153
14.908471 11.312812 -0.71194077 0.92782402
14.908632 11.276279 -0.7065981 0.9279061
14.908798 11.23982 -0.70127392 0.92798787
14.908959 11.203471 -0.69595695 0.92806923
14.909116 11.167216 -0.69065619 0.92815018
14.909286 11.131064 -0.68536699 0.92823076
14.909438 11.09499 -0.68009102 0.92831099
14.909599 11.059004 -0.67482644 0.92839086
14.90977 11.02311 -0.66958249 0.92847037
14.909926 10.987314 -0.66434491 0.92854947
14.910078 10.951591 -0.65911353 0.92862833
14.910244 10.915977 -0.65390396 0.92870671
14.9104 10.880429 -0.64870435 0.92878479
14.910556 10.844995 -0.64351243 0.92886245
14.910707 10.809624 -0.63833833 0.92893982
14.910864 10.774355 -0.63317949 0.92901683
14.911025 10.73918 -0.62801909 0.92909342
14.911181 10.704062 -0.62287843 0.92916977
14.911338 10.669052 -0.61774826 0.92924571
14.911489 10.634121 -0.61263072 0.92932129
14.91165 10.599277 -0.60752821 0.92939657
14.911801 10.564507 -0.60243773 0.92947149
14.911963 10.529834 -0.5973503 0.929546
14.912114 10.495244 -0.59228039 0.92962021
14.912271 10.460717 -0.58722001 0.92969412
14.912412 10.426289 -0.58217388 0.92976773
14.912568 10.391943 -0.57713622 0.92984092
14.912724 10.35768 -0.57211089 0.92991376
14.912875 10.323491 -0.56709516 0.92998636
14.913022 10.289385 -0.56209224 0.93005854
14.913169 10.255351 -0.55710113 0.93013048
14.91333 10.221411 -0.55211788 0.93020201
14.913476 10.187539 -0.54714662 0.93027323
14.913628 10.153745 -0.54218704 0.93034416
14.913784 10.120039 -0.53723752 0.93041468
14.933159 10.099409 -0.5329892 0.93039852
14.983477 10.099624 -0.52982342 0.93024331
15.034019 10.099849 -0.52664274 0.93008727
15.084795 10.100068 -0.52346283 0.92993033
15.13582 10.100293 -0.52025878 0.9297725
51.927441 34.535671 -1.7678595 0.77914888
52.549656 34.832264 -1.7718389 0.77702546
53.072178 35.060467 -1.7721249 0.77528232
53.359444 35.131767 -1.7643354 0.77441835
53.659958 35.210693 -1.7568207 0.77350771
53.983932 35.303955 -1.7499194 0.77251267
54.311424 35.39827 -1.7429423 0.77150756
57.974861 37.658436 -1.8417746 0.7583378
57.975624 37.531631 -1.8231065 0.75854659
57.976364 37.405037 -1.8044708 0.75875461
57.977089 37.27877 -1.7858778 0.75896174
57.97784 37.152763 -1.7673168 0.75916779
57.978561 37.02705 -1.7488005 0.75937313
57.979317 36.901592 -1.7303098 0.75957739
57.980038 36.776424 -1.7118784 0.75978088
57.980759 36.651524 -1.69346 0.75998348
57.981491 36.526855 -1.6750894 0.76018512
57.982224 36.402462 -1.6567457 0.76038599
57.982956 36.278358 -1.6384448 0.76058584
57.983669 36.154503 -1.6201848 0.76078492
57.984402 36.030899 -1.6019588 0.76098305
57.985115 35.907608 -1.5837636 0.76118034
57.985847 35.784512 -1.5656229 0.76137674
57.986561 35.661716 -1.5474793 0.7615723
57.987286 35.5392 -1.5293906 0.76176691
57.987995 35.416885 -1.5113474 0.76196074
57.988708 35.294884 -1.4933255 0.76215369
57.989403 35.173103 -1.4753295 0.76234585
57.990128 35.051533 -1.4573926 0.76253712
57.99086 34.930302 -1.4394658 0.76272738
57.991562 34.809258 -1.4215772 0.76291698
57.992264 34.688446 -1.4037514 0.76310575
57.992958 34.567909 -1.3859249 0.76329368
57.993671 34.447647 -1.3681344 0.76348066
57.994366 34.327568 -1.3503976 0.76366693
57.995075 34.207764 -1.3326689 0.7638523
57.99577 34.088184 -1.3149841 0.76403689
57.996483 33.968868 -1.2973393 0.7642206
57.997166 33.849773 -1.2797225 0.76440358
57.997871 33.730938 -1.2621228 0.76458567
57.998554 33.612354 -1.2445689 0.76476693
57.999237 33.493935 -1.2270482 0.76494747
57.999939 33.37582 -1.2095464 0.76512706
58.000626 33.257931 -1.1920854 0.76530594
58.001328 33.140224 -1.1746494 0.76548398
58.001999 33.0228 -1.1572475 0.76566124
58.002693 32.905544 -1.1398857 0.76583773
58.003376 32.788555 -1.1225468 0.76601344
58.004063 32.671787 -1.105229 0.76618832
58.004745 32.555283 -1.0879394 0.76636237
58.005428 32.438946 -1.0706992 0.7665357
58.006092 32.322872 -1.0534816 0.76670825
58.006794 32.206993 -1.0362773 0.76687992
58.007462 32.091316 -1.019123 0.76705098
58.008152 31.975887 -1.0019894 0.76722109
58.008808 31.860712 -0.98489553 0.76739055
58.009491 31.745712 -0.96782374 0.76755917
58.010155 31.630917 -0.950773 0.76772708
58.010838 31.516327 -0.93375218 0.76789421
58.011501 31.401962 -0.91676724 0.76806068
58.012165 31.287861 -0.89980948 0.76822621
58.012833 31.173935 -0.88287807 0.76839107
58.013496 31.060244 -0.86599362 0.7685551
58.01416 30.946709 -0.84909618 0.76871848
58.014824 30.833408 -0.83224392 0.76888108
58.015488 30.720312 -0.81542861 0.76904297
58.016151 30.60746 -0.79863447 0.76920402
58.016815 30.494764 -0.78186315 0.76936442
58.01746 30.382284 -0.76513135 0.7695241
58.018105 30.27002 -0.74841839 0.769683
58.018787 30.157938 -0.73172551 0.76984113
58.019432 30.046083 -0.71506035 0.76999855
58.020096 29.934364 -0.69844878 0.77015531
58.020741 29.822939 -0.68182981 0.77031124
58.021385 29.71163 -0.66525495 0.77046657
58.02203 29.600576 -0.64869809 0.77062106
58.022686 29.489697 -0.6321559 0.77077484
58.023331 29.379004 -0.61566389 0.77092797
58.024002 29.268524 -0.59918624 0.77108032
58.024628 29.158203 -0.58272564 0.77123207
58.025272 29.048096 -0.56630051 0.77138299
58.025925 28.938202 -0.54990047 0.77153319
58.026569 28.828438 -0.53349912 0.7716828
58.027206 28.718906 -0.51715893 0.77183169
58.016483 28.603954 -0.50073165 0.77201891
58.017117 28.494823 -0.48441344 0.77216637
14.323198 6.9808493 -0.11156005 0.93825191
14.310048 6.947578 -0.10750122 0.93835104
14.319404 6.925293 -0.10353211 0.93835598
14.330684 6.9039402 -0.099606015 0.93835282
14.360771 6.8916063 -0.095813595 0.93827116
62.380417 26.196161 0.14383605 0.76289785
62.441238 26.111269 0.16058166 0.76282668
62.502129 26.026289 0.17734694 0.76275492
62.569111 25.943798 0.19412765 0.76266265
68.75943 27.307577 0.3945514 0.7438333
68.71579 27.170937 0.41228804 0.74410355
70.05619 26.254951 0.6387642 0.74136037
67.591827 25.216221 0.63373059 0.74932659
67.692696 25.138563 0.65211684 0.74912393
70.56176 24.893213 0.87845105 0.7413246
70.314041 24.688017 0.89326155 0.74221945
70.068298 24.484432 0.90794659 0.74310774
69.824699 24.282646 0.9225114 0.74398881
69.907196 24.194649 0.94133621 0.74384201
70.100601 24.144688 0.96169966 0.74334604
70.159004 24.047998 0.98025864 0.74327451
70.217422 23.951241 0.99883097 0.74320251
70.275826 23.854502 1.0174025 0.74313003
70.334297 23.757666 1.0360048 0.74305701
70.392815 23.66077 1.0546117 0.74298334
70.451279 23.563906 1.073228 0.74290937
70.509842 23.466972 1.0918626 0.74283463
70.568443 23.369951 1.1105082 0.74275941
70.627037 23.27294 1.1291771 0.74268371
70.685669 23.175859 1.1478431 0.74260747
71.360474 23.279755 1.1766932 0.74060798
71.366089 23.164375 1.1946483 0.74069709
71.371719 23.049091 1.2125893 0.74078554
70.293594 18.968124 1.7660551 0.74727881
70.225395 18.50666 1.8325535 0.74782634
70.303268 18.416592 1.8516151 0.74766809
62.328613 16.229639 1.6566862 0.77281696
62.347412 16.13661 1.6722736 0.77283168
62.366199 16.043652 1.6878554 0.77284598
62.38496 15.950751 1.7034431 0.77285987
62.403748 15.857851 1.7190272 0.77287322
60.875702 15.374346 1.6916151 0.77783597
60.912224 15.288398 1.7073225 0.77778977
60.948776 15.202432 1.7230339 0.77774304
60.98531 15.116474 1.7387562 0.77769595
61.021893 15.030498 1.7544817 0.77764833
61.058464 14.944472 1.7702196 0.77760029
61.095058 14.858427 1.7859614 0.77755177
61.131649 14.772344 1.8017061 0.77750289
61.168259 14.686289 1.8174641 0.77745348
60.275436 14.378476 1.8053954 0.78038186
60.129021 14.250449 1.8154191 0.780918
57.858757 13.622842 1.7607374 0.78830689
57.89333 13.541465 1.7756392 0.78825802
57.558777 13.374296 1.7791487 0.78940499
57.603416 13.295772 1.7942982 0.7893222
57.648056 13.217177 1.8094563 0.78923905
57.692734 13.138584 1.8246416 0.78915542
57.362888 12.975165 1.8278853 0.79028487
57.782196 12.981152 1.8550252 0.78898668
57.826942 12.902372 1.8702466 0.78890175
57.871738 12.823554 1.8854725 0.78881627
57.020176 12.547412 1.8713026 0.79163289
57.368504 12.536172 1.8963664 0.79056185
57.720848 12.524815 1.9217536 0.78947949
57.815193 12.456855 1.9386275 0.78923208
57.62833 12.328515 1.9460456 0.78989303
57.804245 12.2779 1.9657001 0.78938121
57.975536 12.225781 1.9852699 0.78888446
57.89957 12.121552 1.9963911 0.7891854
57.823845 12.017636 2.0074806 0.7894851
57.748386 11.914062 2.0185323 0.78978348
57.673164 11.810859 2.0295537 0.79008055
57.598202 11.707997 2.0405333 0.79037637
57.938789 11.689306 2.0662913 0.7893312
57.797596 11.573164 2.0749125 0.78983945
57.657207 11.457705 2.0834858 0.79034466
57.517559 11.342841 2.0920105 0.79084712
58.321602 11.413164 2.1350105 0.78830928
58.327995 11.32625 2.1489949 0.78834033
58.334385 11.239365 2.1629703 0.78837097
58.340759 11.15251 2.1769471 0.78840125
58.347168 11.065762 2.1909146 0.78843087
58.353523 10.979053 2.2048841 0.78846031
58.359909 10.892373 2.2188411 0.78848916
58.366268 10.805752 2.2327976 0.78851771
59.933445 11.005772 2.3068292 0.78355271
59.952381 10.919209 2.3216338 0.78354138
59.430584 10.73499 2.3153722 0.78525496
59.465733 10.65209 2.3306906 0.78519058
59.500889 10.569238 2.3460102 0.78512579
59.536034 10.486308 2.3613448 0.78506064
59.571201 10.403339 2.3766887 0.78499502
59.606384 10.320391 2.3920455 0.78492898
58.908836 10.111582 2.377841 0.78720188
58.99538 10.038321 2.3951294 0.7869702
59.0821 9.9649115 2.4124553 0.78673762
40.408993 6.7552147 1.6594365 0.84873068
40.436249 6.6995215 1.669994 0.84866905
59.343319 9.7437305 2.4647028 0.78603524
59.430828 9.6696482 2.4822059 0.78579926
59.518467 9.5954103 2.4997478 0.78556257
59.606316 9.5210543 2.5173383 0.78532499
59.360527 9.3936424 2.5207953 0.78614962
59.080193 9.2616205 2.5226471 0.78708452
58.738083 9.1209278 2.521714 0.78821689
58.39999 8.981904 2.5207887 0.78933722
59.5471 9.0701561 2.5841589 0.78571802
59.508846 8.9762402 2.5963378 0.78587937
59.470661 8.8825684 2.6085029 0.78603995
59.432575 8.789053 2.6206336 0.78619987
59.394531 8.6957617 2.6327629 0.78635913
59.190018 8.5784664 2.6374414 0.78704786
59.31868 8.5096388 2.6569409 0.78667557
59.280857 8.4168653 2.6690001 0.78683287
59.243103 8.3242283 2.6810424 0.78698945
59.205418 8.2317772 2.6930652 0.78714538
59.900848 8.2403708 2.7385747 0.78497148
60.62825 8.2512884 2.7858765 0.7827028
60.688877 8.1704102 2.8027208 0.78254646
60.749619 8.089365 2.8195934 0.7823894
60.81041 8.0082712 2.8364911 0.78223187
60.871307 7.9270411 2.8534136 0.78207368
61.178799 7.8774023 2.8819764 0.78113711
61.180733 7.7880859 2.8962169 0.78116441
61.182705 7.6988082 2.9104548 0.78119123
60.810993 7.5630565 2.906817 0.7823965
60.690536 7.4593163 2.9150708 0.7828089
60.570732 7.356123 2.9233086 0.78321886
60.451416 7.2533398 2.9315038 0.78362697
70.420914 8.3468065 3.4312053 0.75277627
68.23645 7.1942186 3.4661548 0.75971752
54.213406 -2.3799317 4.0547614 0.80439276
25.15954 -2.4099708 2.0950806 0.90353036
25.134745 -2.4428515 2.0987744 0.90360677
25.142313 -2.4788377 2.1051936 0.90356511
55.576641 -10.883652 5.5458078 0.79643261
55.393417 -10.926475 5.5405989 0.79697824
55.211308 -10.969023 5.5354185 0.79752058
52.555271 -10.516035 5.2815366 0.80619746
52.501141 -10.579863 5.288496 0.80632526
52.447098 -10.643583 5.2954478 0.80645251
51.775974 -10.581094 5.2399364 0.80862415
51.626415 -10.624033 5.2370133 0.80906904
51.477615 -10.666728 5.2340994 0.8095116
51.329636 -10.709189 5.2312145 0.8099516
51.182461 -10.751426 5.2283373 0.8103891
51.578415 -10.908105 5.2810144 0.80901939
51.054413 -10.870156 5.2394695 0.81071043
51.952042 -11.135371 5.3439226 0.80767113
51.907265 -11.199853 5.3516331 0.80776578
51.862556 -11.264267 5.3593397 0.80785996
51.817909 -11.328584 5.3670459 0.80795366
51.773331 -11.392812 5.3747406 0.80804694
51.728798 -11.456972 5.382431 0.8081398
51.684353 -11.521025 5.390111 0.80823213
51.639938 -11.58501 5.3977695 0.8083241
51.594841 -11.64876 5.4053478 0.80841815
51.551315 -11.712725 5.4130836 0.80850667
49.756931 -11.376279 5.2365327 0.81445569
49.313778 -11.345634 5.2016592 0.81589061
49.58461 -11.479023 5.2420716 0.81492358
49.754765 -11.589775 5.2719426 0.81429517
49.754044 -11.661016 5.2837634 0.81424099
49.753311 -11.732236 5.2955923 0.81418651
49.752598 -11.803535 5.3074164 0.81413162
49.751884 -11.874824 5.3192577 0.81407648
49.751152 -11.946181 5.3310981 0.81402093
49.750439 -12.017519 5.3429418 0.81396514
49.481228 -12.023682 5.325902 0.81481391
49.157341 -12.015742 5.3028483 0.81584853
48.837654 -12.00791 5.2800817 0.81687069
51.339249 -12.696953 5.5628686 0.8083896
51.322762 -12.766835 5.573422 0.80838341
51.306297 -12.836709 5.5839767 0.80837679
51.289822 -12.906572 5.5945263 0.80836993
51.273369 -12.976436 5.6050773 0.80836266
51.212322 -13.034912 5.6107502 0.80850476
51.046474 -13.066494 5.6048832 0.80899858
50.881699 -13.097851 5.599062 0.80948919
50.71793 -13.129013 5.5932884 0.80997682
50.555077 -13.16 5.5875354 0.81046164
50.393223 -13.19081 5.5818305 0.81094348
50.310829 -13.242109 5.5848637 0.81115746
51.141727 -13.534912 5.6894813 0.80829346
51.125282 -13.604687 5.7000232 0.80828339
51.108856 -13.674434 5.7105756 0.80827296
51.092411 -13.744199 5.7211185 0.80826223
51.075977 -13.813926 5.731679 0.8082512
51.05954 -13.883662 5.7422137 0.80823982
51.043125 -13.953388 5.7527733 0.80822808
51.026688 -14.023134 5.7633214 0.80821609
54.057323 -14.934688 6.1187654 0.79798859
53.971542 -14.989551 6.1221929 0.79820329
53.885986 -15.044296 6.1256003 0.79841715
53.800663 -15.098866 6.1290174 0.79863012
54.318691 -15.323466 6.2012706 0.7968303
54.422684 -15.432246 6.2264328 0.7964108
54.527157 -15.541465 6.2516828 0.79598933
50.459618 -14.455811 5.7976565 0.80958402
50.380848 -14.506865 5.800921 0.80978119
50.302235 -14.557802 5.8041706 0.80997777
50.223858 -14.608603 5.807415 0.81017345
50.145664 -14.659277 5.8106561 0.81036836
50.067684 -14.709814 5.8138885 0.81056255
42.631981 -12.587744 4.960906 0.83618122
42.601669 -12.641279 4.967833 0.83622473
42.639599 -12.715097 4.9827318 0.8360284
42.677628 -12.789082 4.9976549 0.83583134
42.71574 -12.86331 5.0126252 0.83563358
42.753933 -12.937646 5.0276237 0.83543521
42.792244 -13.012217 5.0426712 0.83523595
42.830635 -13.086943 5.0577478 0.8350361
42.869129 -13.161845 5.0728722 0.83483547
42.907696 -13.236934 5.0880222 0.83463424
42.937744 -13.30955 5.1021843 0.83446252
42.875896 -13.353662 5.1054335 0.83461374
42.814228 -13.397655 5.1086755 0.83476436
42.752666 -13.441572 5.1119065 0.83491439
42.691231 -13.485391 5.1151366 0.83506393
42.629959 -13.529101 5.1183534 0.83521277
42.568779 -13.572743 5.121573 0.83536118
42.507774 -13.61626 5.1247721 0.83550888
42.446892 -13.659678 5.1279798 0.83565605
42.38615 -13.703017 5.1311774 0.83580261
42.325508 -13.746269 5.1343589 0.83594877
42.622372 -13.906015 5.1809802 0.83482969
42.538162 -13.941748 5.1813431 0.83505827
42.454189 -13.977392 5.1816955 0.83528596
44.568611 -14.739902 5.4508872 0.82775933
44.553925 -14.801396 5.460216 0.82773799
44.539227 -14.8629 5.4695377 0.82771635
44.524529 -14.924434 5.4788666 0.82769448
44.509834 -14.985957 5.488194 0.82767224
44.495136 -15.04747 5.49753 0.82764977
39.955097 -13.571865 4.9466033 0.8437115
39.952137 -13.630615 4.9562516 0.84365362
43.819824 -15.015761 5.4470539 0.82980764
42.138477 -14.502764 5.2486401 0.83569676
41.914902 -14.488652 5.2313251 0.83642077
41.693455 -14.474658 5.2141747 0.8371383
41.474216 -14.46083 5.1972003 0.8378489
38.438709 -13.460146 4.8265014 0.8487004
38.444099 -13.519854 4.8368688 0.84861249
38.44949 -13.579609 4.8472528 0.84852421
38.454903 -13.639443 4.8576427 0.84843558
38.4603 -13.699306 4.8680496 0.84834671
38.465721 -13.759257 4.8784657 0.84825742
37.536648 -13.483583 4.7701349 0.85156739
37.574627 -13.553994 4.7844853 0.85136008
37.612713 -13.624579 4.7988691 0.85115206
37.650906 -13.695371 4.813292 0.85094321
37.68919 -13.766367 4.8277588 0.85073364
37.727577 -13.837568 4.8422666 0.85052329
37.766083 -13.908955 4.8568158 0.85031217
37.804707 -13.980566 4.8714085 0.85010016
37.843437 -14.052382 4.886044 0.84988737
37.882294 -14.124385 4.9007196 0.84967375
37.921238 -14.196582 4.9154367 0.84945941
36.245186 -13.624326 4.7074475 0.85553741
38.224003 -14.426406 4.9742255 0.84820753
38.161572 -14.461025 4.9758558 0.84836233
40.199219 -15.294521 5.2518415 0.84086877
54.268467 -20.730381 7.1038213 0.79127985
52.86235 -20.274033 6.9333243 0.79599762
52.835049 -20.344433 6.9433093 0.79599446
52.807755 -20.414795 6.9532933 0.79599106
52.780499 -20.485136 6.963284 0.79598719
52.75322 -20.555468 6.9732585 0.79598308
52.725937 -20.625801 6.9832335 0.79597867
52.698662 -20.696114 6.9932141 0.79597396
52.671406 -20.766426 7.0031891 0.79596883
52.644131 -20.836739 7.0131664 0.79596347
37.133663 -14.754814 4.9564872 0.85124481
36.514736 -14.565195 4.8833251 0.8534584
36.507576 -14.618701 4.8918242 0.85341007
36.500439 -14.672216 4.9003253 0.85336143
52.592712 -21.222216 7.0744257 0.79563832
52.609314 -21.310312 7.0903106 0.79547924
52.625946 -21.398554 7.1062346 0.7953195
52.642597 -21.486923 7.122179 0.79515934
52.659286 -21.575439 7.1381464 0.79499853
52.675976 -21.664091 7.1541424 0.7948373
52.692722 -21.75288 7.1701608 0.79467535
52.673321 -21.826855 7.1812749 0.79463834
37.321251 -15.523349 5.0979905 0.8496213
37.36377 -15.599257 5.1135678 0.84938395
37.406456 -15.675439 5.129209 0.84914547
37.449306 -15.751884 5.1448994 0.84890598
37.492256 -15.828564 5.1606321 0.84866565
37.535362 -15.905478 5.1764212 0.84842432
37.578621 -15.982656 5.1922612 0.84818202
35.816658 -15.289413 4.9582324 0.85467702
35.730858 -15.308867 4.9557629 0.85491973
34.84449 -14.983887 4.8420105 0.85817289
34.802792 -15.020654 4.8453941 0.85825229
34.761143 -15.057383 4.8487773 0.85833138
34.719551 -15.094062 4.8521509 0.85841012
34.678028 -15.130673 4.8555231 0.8584885
34.636562 -15.167236 4.8588843 0.85856658
34.595127 -15.20375 4.8622456 0.85864437
34.553806 -15.240205 4.8656058 0.85872167
34.512478 -15.27664 4.8689609 0.85879886
34.471241 -15.312998 4.8723001 0.85887557
33.638836 -14.996562 4.7635975 0.86195844
33.88163 -15.158593 4.807003 0.86095589
34.128212 -15.323144 4.8510838 0.85993868
34.306847 -15.457939 4.8856354 0.85917938
34.265919 -15.494042 4.8889637 0.85925442
33.45919 -15.182588 4.7828045 0.86224926
33.530724 -15.268583 4.8020067 0.86189634
33.602596 -15.35499 4.8213 0.86154169
33.674824 -15.441816 4.8407044 0.86118519
33.747498 -15.52918 4.8602061 0.86082643
31.888544 -14.724814 4.6010547 0.86788458
31.872158 -14.768408 4.6072721 0.86786997
31.85578 -14.811953 4.6134791 0.86785519
31.839394 -14.855527 4.6196866 0.86784017
31.823027 -14.899081 4.6259031 0.86782497
31.80665 -14.942656 4.6321149 0.86780947
31.790274 -14.986211 4.6383271 0.86779386
31.773905 -15.029765 4.6445346 0.86777794
31.757528 -15.073339 4.6507506 0.86776185
31.741142 -15.116933 4.6569624 0.86774552
31.724745 -15.160498 4.6631727 0.86772907
31.708378 -15.204062 4.6693873 0.86771232
31.692001 -15.247646 4.6755977 0.86769533
31.675615 -15.291221 4.681808 0.86767817
31.659218 -15.334805 4.6880212 0.86766088
31.642832 -15.378407 4.6942272 0.86764324
31.626455 -15.421992 4.7004437 0.86762542
31.609804 -15.465459 4.7066197 0.86760843
31.473232 -15.450068 4.6948967 0.8680591
31.318085 -15.425127 4.6803436 0.86858296
31.354239 -15.494277 4.6943474 0.86835951
31.544481 -15.63999 4.7315025 0.86753327
31.528086 -15.683613 4.7377133 0.86751419
31.511669 -15.727236 4.7439222 0.86749494
31.495293 -15.77084 4.7501359 0.86747533
31.478867 -15.814482 4.7563505 0.86745572
31.46246 -15.858105 4.7625628 0.86743575
31.446064 -15.901729 4.7687731 0.86741561
31.429647 -15.9454 4.7749891 0.86739522
30.180361 -15.361494 4.5935493 0.87223184
30.209267 -15.42627 4.6063361 0.87203515
30.238241 -15.491181 4.6191516 0.87183779
30.267294 -15.556328 4.6320081 0.87163973
30.296453 -15.621689 4.6449037 0.87144077
30.325693 -15.687236 4.6578398 0.87124103
30.355047 -15.752988 4.6708179 0.87104052
29.995634 -15.616552 4.6239014 0.87238181
30.024725 -15.681855 4.6367869 0.87218213
29.789961 -15.609062 4.6088724 0.87303144
29.796425 -15.662314 4.6182246 0.87292159
29.802879 -15.715703 4.6275892 0.87281132
29.809336 -15.769131 4.6369681 0.87270087
29.815819 -15.822665 4.6463547 0.87258989
29.822313 -15.876288 4.6557703 0.87247854
29.828808 -15.929999 4.6651959 0.87236691
29.83534 -15.983809 4.6746368 0.87225473
28.97205 -15.570244 4.5475583 0.87562686
28.830645 -15.542978 4.5335255 0.87611055
28.564892 -15.448086 4.4998789 0.87709552
28.551298 -15.489141 4.5057836 0.87706631
28.413399 -15.462548 4.492085 0.8775382
28.27668 -15.436201 4.4785118 0.8780061
28.141104 -15.410068 4.4650483 0.87847012
29.892246 -16.419912 4.7514143 0.87132686
29.815683 -16.42873 4.747745 0.87154555
29.739403 -16.43751 4.7440948 0.87176329
29.663427 -16.446239 4.7404552 0.87198001
29.587744 -16.45495 4.736835 0.87219578
29.512352 -16.463623 4.7332249 0.87241054
29.437265 -16.472265 4.7296286 0.87262428
29.36244 -16.480879 4.7260466 0.87283707
29.287889 -16.489443 4.7224731 0.87304902
29.58709 -16.708897 4.7792363 0.87174839
29.541405 -16.734081 4.7803721 0.87184232
29.495781 -16.759218 4.7815123 0.87193596
31.242167 -17.805555 5.0736451 0.8647939
31.193193 -17.831699 5.0747247 0.86489469
31.144306 -17.857792 5.0757952 0.86499512
31.095497 -17.883848 5.0768671 0.86509514
31.046776 -17.909853 5.0779357 0.8651948
30.998154 -17.93581 5.0790043 0.86529404
28.606035 -16.601641 4.6953959 0.8749187
28.56706 -16.628916 4.6973295 0.87498695
28.528145 -16.656172 4.6992602 0.87505496
28.489267 -16.683388 4.7011871 0.87512273
28.450449 -16.710556 4.703115 0.8751902
28.41169 -16.737705 4.7050309 0.87525731
28.372978 -16.764805 4.7069526 0.87532419
28.334326 -16.791874 4.7088671 0.87539077
28.295723 -16.818907 4.7107763 0.87545705
28.257158 -16.845928 4.7126837 0.87552309
28.218651 -16.872881 4.7145896 0.87558883
28.180214 -16.899805 4.7164893 0.87565428
28.141825 -16.92668 4.7183943 0.87571949
28.103476 -16.953545 4.7202873 0.87578434
28.065195 -16.98036 4.7221766 0.87584895
28.026924 -17.007168 4.7240672 0.87591332
27.988729 -17.033926 4.7259474 0.8759774
27.950584 -17.060635 4.7278333 0.87604117
27.912479 -17.087324 4.7297134 0.87610471
27.874443 -17.113974 4.7315898 0.87616795
27.836464 -17.140575 4.7334614 0.8762309
27.798506 -17.167177 4.7353301 0.8762936
27.760614 -17.19372 4.7371984 0.87635607
27.722744 -17.220263 4.739058 0.87641823
27.684959 -17.246738 4.7409196 0.87648004
27.956903 -17.466688 4.7959056 0.87524879
23.50668 -14.728827 4.0395617 0.89392805
22.268768 -13.993545 3.8335516 0.8991425
22.230585 -14.009912 3.8336999 0.89922643
22.19248 -14.026259 3.8338428 0.89930999
22.154463 -14.042568 3.833988 0.8993932
22.116503 -14.058847 3.8341284 0.89947617
21.68667 -13.825214 3.7662048 0.90125078
21.66493 -13.850996 3.7690258 0.9012652
21.643223 -13.876767 3.7718396 0.90127933
21.621523 -13.902519 3.7746551 0.9012934
21.599834 -13.928242 3.7774718 0.90130728
21.578144 -13.953984 3.7802801 0.90132099
21.556465 -13.979697 3.7830894 0.90133458
21.534794 -14.00541 3.7858946 0.90134794
21.513153 -14.031094 3.7886944 0.90136117
21.491503 -14.056777 3.7914996 0.90137428
21.469873 -14.082451 3.7942975 0.90138716
21.182451 -13.933271 3.7500396 0.90256023
21.176367 -13.968672 3.7555108 0.90250593
21.170282 -14.004111 3.7609837 0.9024514
21.164188 -14.03959 3.7664623 0.90239668
21.158085 -14.075097 3.7719426 0.90234178
20.470156 -13.655771 3.6556609 0.90528226
20.468466 -13.693017 3.6617339 0.90520996
20.272919 -13.600273 3.6330736 0.90599227
20.30835 -13.662266 3.6457579 0.90575618
20.343925 -13.724531 3.6585083 0.90551901
20.221004 -13.679766 3.6427343 0.90598226
20.257793 -13.742959 3.6557105 0.90573913
20.294746 -13.806445 3.6687548 0.90549481
20.331913 -13.870274 3.6818657 0.90524906
20.369287 -13.934472 3.6950519 0.90500182
20.406855 -13.998984 3.7082994 0.90475327
20.444628 -14.063896 3.7216277 0.90450317
20.449795 -14.106474 3.7290318 0.90439755
20.448067 -14.144375 3.7351983 0.90432227
20.446346 -14.182353 3.7413745 0.90424669
20.444649 -14.220371 3.747556 0.90417075
20.442919 -14.258486 3.7537541 0.90409458
20.4412 -14.29662 3.7599487 0.90401822
19.718115 -13.828916 3.6332445 0.90716916
19.739637 -13.882099 3.6435125 0.90699071
19.761221 -13.935527 3.653831 0.90681148
19.654736 -13.898525 3.6404462 0.90720737
19.687714 -13.960058 3.6528766 0.90697646
19.720869 -14.021904 3.6653709 0.9067443
19.754208 -14.084091 3.6779332 0.90651077
19.787695 -14.146582 3.690556 0.90627611
19.821358 -14.209374 3.703239 0.90604013
19.855194 -14.27251 3.715987 0.90580279
19.889217 -14.335957 3.7287982 0.90556419
19.923388 -14.399746 3.7416809 0.90532428
19.957773 -14.463877 3.754627 0.90508288
19.992323 -14.528339 3.7676446 0.90484023
20.02706 -14.593124 3.7807214 0.90459627
20.041073 -14.642959 3.7899151 0.90444571
19.980272 -14.638144 3.7849596 0.90463406
19.919775 -14.633359 3.7800267 0.9048214
19.859501 -14.628593 3.7751117 0.9050079
19.799511 -14.623837 3.7702167 0.90519345
19.499844 -14.441435 3.7195799 0.90647262
19.477821 -14.464082 3.7218065 0.90648645
19.455811 -14.486699 3.7240257 0.90650016
18.211113 -13.596436 3.4918089 0.91212893
18.18207 -13.611308 3.4922709 0.91218042
18.153067 -13.626162 3.4927294 0.91223174
18.124121 -13.640986 3.493186 0.91228282
18.095215 -13.65579 3.4936407 0.91233367
18.066328 -13.670586 3.4940953 0.91238439
18.037479 -13.685361 3.4945483 0.91243488
18.008692 -13.700108 3.4950018 0.91248512
17.631748 -13.449258 3.4277568 0.91415405
17.61455 -13.472041 3.4303331 0.91415203
17.597363 -13.494853 3.4329071 0.91414976
17.580156 -13.517656 3.4354765 0.91414744
17.562948 -13.540459 3.4380455 0.91414505
17.545771 -13.563251 3.4406133 0.91414237
17.528574 -13.586044 3.4431806 0.91413969
17.511396 -13.608837 3.4457464 0.91413677
17.494188 -13.63164 3.4483099 0.91413379
17.476992 -13.654443 3.4508703 0.91413069
17.459805 -13.677217 3.4534349 0.91412747
17.442627 -13.7 3.4559948 0.91412401
17.425449 -13.722793 3.458554 0.9141205
17.408272 -13.745566 3.4611139 0.9141168
17.391094 -13.768359 3.4636688 0.91411299
17.373915 -13.791133 3.4662249 0.91410905
17.113407 -13.620263 3.4201512 0.91525662
17.107206 -13.651289 3.4248161 0.9152016
17.100996 -13.682353 3.4294865 0.91514635
17.094765 -13.713447 3.4341607 0.91509098
17.088526 -13.74459 3.4388409 0.91503537
17.082285 -13.775762 3.4435234 0.91497964
16.414999 -13.27247 3.314724 0.9180783
16.412022 -13.304971 3.3198481 0.91800958
16.409042 -13.337539 3.3249805 0.91794056
16.202305 -13.204077 3.2887621 0.91884887
16.227783 -13.25958 3.2996306 0.91864359
16.253387 -13.315347 3.3105443 0.91843724
16.2791 -13.371352 3.3215094 0.91823
16.304985 -13.427714 3.3325384 0.91802126
16.166817 -13.348808 3.3100116 0.91860306
16.193491 -13.405829 3.3212066 0.91839021
16.220293 -13.463115 3.3324535 0.91817623
16.247265 -13.520776 3.3437645 0.91796082
16.274374 -13.578715 3.3551373 0.91774428
16.30163 -13.636958 3.3665674 0.91752654
16.329033 -13.695537 3.3780596 0.91730744
16.356602 -13.754429 3.3896141 0.91708708
16.366924 -13.798999 3.3976207 0.91694987
16.363892 -13.832363 3.4028668 0.91687727
16.360849 -13.865806 3.4081182 0.91680443
16.357801 -13.899277 3.4133801 0.91673136
16.354736 -13.932841 3.4186492 0.91665804
16.351675 -13.966459 3.4239311 0.91658443
16.348614 -14.000117 3.4292133 0.91651058
16.345541 -14.033833 3.4345067 0.91643655
16.342476 -14.067622 3.4398069 0.91636217
15.619995 -13.480596 3.2934325 0.91982132
15.634399 -13.528003 3.3021789 0.91966408
15.648862 -13.575615 3.3109612 0.91950601
15.663383 -13.623418 3.3197753 0.91934723
15.544556 -13.555068 3.300302 0.91984707
15.568295 -13.610918 3.3110723 0.91964239
15.592177 -13.667065 3.3218987 0.91943651
15.616172 -13.723476 3.3327789 0.91922963
15.640307 -13.780224 3.3437219 0.91902137
15.664556 -13.837246 3.3547211 0.9188121
15.688935 -13.894555 3.3657665 0.91860163
15.713442 -13.952202 3.3768785 0.91838986
15.738095 -14.010151 3.3880475 0.91817695
15.762866 -14.068383 3.3992705 0.91796285
15.787773 -14.126943 3.4105542 0.9177475
15.812817 -14.185815 3.4218974 0.91753095
15.838008 -14.245029 3.4333067 0.91731304
15.863325 -14.30455 3.4447711 0.91709387
15.888506 -14.364131 3.4562414 0.91687495
15.904023 -14.415161 3.4656322 0.91670382
15.930268 -14.476089 3.4773889 0.9164784
15.887343 -14.474223 3.4740534 0.91659981
15.844609 -14.472363 3.4707341 0.91672057
15.801952 -14.470512 3.4674163 0.91684097
15.759423 -14.468657 3.4641101 0.91696095
15.717074 -14.466816 3.4608159 0.91708028
16.086918 -14.845268 3.5484271 0.91511744
16.096846 -14.892549 3.556803 0.91497028
16.075684 -14.911122 3.5583215 0.91497988
16.054522 -14.929707 3.5598314 0.91498929
16.033369 -14.948276 3.561347 0.91499865
16.012226 -14.966836 3.5628564 0.91500783
15.712509 -14.724311 3.5022557 0.91643375
15.680049 -14.731552 3.5011358 0.91650212
15.662426 -14.75269 3.5033073 0.91649491
15.927739 -15.041 3.5688798 0.91504329
15.906635 -15.059516 3.5703802 0.91505182
15.885537 -15.078047 3.571878 0.91506022
15.864424 -15.096567 3.5733728 0.91506851
15.529765 -14.815879 3.5041173 0.91668552
15.495859 -14.821357 3.5025897 0.91676146
15.462031 -14.826836 3.5010626 0.91683704
15.428276 -14.832294 3.4995372 0.91691238
15.105107 -14.558725 3.43224 0.91848302
15.081576 -14.573203 3.4328985 0.91850758
15.058071 -14.587661 3.4335589 0.91853195
15.03457 -14.602118 3.4342186 0.91855627
15.011088 -14.616562 3.4348736 0.91858041
14.987637 -14.631001 3.4355261 0.91860431
14.96419 -14.645425 3.4361792 0.91862822
14.940771 -14.659834 3.4368274 0.91865188
14.917354 -14.674233 3.4374754 0.91867548
14.893954 -14.688638 3.438123 0.91869891
14.870585 -14.703022 3.4387693 0.91872215
13.885395 -13.763974 3.216599 0.92380309
13.88707 -13.800756 3.2226496 0.92370069
13.888744 -13.837666 3.2287226 0.92359781
13.890429 -13.874639 3.2348039 0.92349464
13.892109 -13.911738 3.2409039 0.92339098
13.893804 -13.948911 3.2470164 0.92328703
13.800278 -13.890366 3.2308531 0.92368847
13.80228 -13.927797 3.2370245 0.92358273
13.804272 -13.965337 3.2432165 0.92347664
13.806274 -14.002993 3.2494214 0.92337012
13.80829 -14.040751 3.2556438 0.92326319
13.810312 -14.078613 3.2618828 0.92315584
13.812334 -14.116567 3.268136 0.9230482
13.81436 -14.154643 3.2744048 0.92294008
13.816386 -14.192842 3.2806914 0.92283148
13.818432 -14.231118 3.286994 0.92272258
13.820488 -14.269516 3.2933135 0.92261314
13.822544 -14.308022 3.2996502 0.92250335
13.824594 -14.346641 3.3060026 0.9223932
13.82666 -14.385376 3.3123753 0.92228258
13.819985 -14.415097 3.3166606 0.92221874
13.265708 -13.872231 3.1893036 0.92512214
13.263076 -13.904839 3.1943457 0.92503965
13.260444 -13.937534 3.1993999 0.9249568
13.257802 -13.970293 3.2044616 0.92487371
13.169863 -13.913017 3.1888843 0.92525572
13.170567 -13.949247 3.1947441 0.92515427
13.171279 -13.985585 3.200623 0.9250524
13.171992 -14.022026 3.2065113 0.92495018
13.172709 -14.058559 3.2124193 0.92484754
13.173428 -14.095195 3.2183404 0.92474455
13.17415 -14.131948 3.2242765 0.92464113
13.174872 -14.168779 3.2302294 0.92453736
13.17561 -14.205732 3.2361951 0.92443311
13.176337 -14.242764 3.2421739 0.92432863
13.17707 -14.279922 3.2481732 0.9242236
13.177802 -14.317178 3.2541838 0.92411828
13.178535 -14.354541 3.260216 0.92401248
13.179287 -14.392002 3.2662604 0.92390633
13.180024 -14.42957 3.2723181 0.92379975
13.180766 -14.467256 3.2783966 0.92369276
13.181528 -14.505029 3.2844861 0.92358536
13.182285 -14.542944 3.2905955 0.92347753
13.183027 -14.580952 3.2967186 0.92336929
13.183788 -14.619058 3.3028576 0.92326069
13.184541 -14.657285 3.3090167 0.92315167
13.185312 -14.695605 3.315186 0.92304218
13.186084 -14.734057 3.3213744 0.92293227
13.186846 -14.772616 3.3275824 0.92282194
13.187632 -14.811289 3.3338041 0.92271119
13.188398 -14.850078 3.3400464 0.92259997
13.171132 -14.868598 3.341723 0.92259026
13.112788 -14.8406 3.3329539 0.92281264
13.054716 -14.812758 3.3242254 0.92303389
12.997055 -14.785097 3.315556 0.92325354
12.939702 -14.757587 3.3069329 0.92347193
13.248174 -15.148125 3.3919334 0.92161119
13.235327 -15.172246 3.3948181 0.92157412
13.222461 -15.196382 3.3977044 0.92153686
13.209604 -15.220537 3.4005926 0.92149949
13.196723 -15.244712 3.4034827 0.921462
13.183827 -15.268926 3.4063721 0.92142433
12.93457 -15.018701 3.348078 0.92274129
12.920449 -15.040815 3.3505445 0.92271227
12.904487 -15.060859 3.3525434 0.92269349
12.852901 -15.039204 3.3452587 0.92287993
12.814834 -15.033198 3.3414752 0.92298883
12.810849 -15.067226 3.3465428 0.9229008
12.782743 -15.072812 3.3453662 0.92295223
12.768808 -15.09516 3.3478699 0.92292142
12.754892 -15.117499 3.3503735 0.92289042
12.740947 -15.139882 3.3528802 0.92285931
12.726996 -15.162251 3.3553874 0.92282814
12.713027 -15.184668 3.3578918 0.92279673
12.699062 -15.207089 3.3603997 0.92276514
12.685078 -15.229531 3.3629065 0.92273349
12.671083 -15.251987 3.3654149 0.92270172
12.65708 -15.274463 3.3679242 0.92266977
12.643056 -15.296977 3.370435 0.92263758
12.541513 -15.213315 3.3495715 0.92312056
12.314467 -14.976513 3.2950468 0.92434597
12.158848 -14.825512 3.2594566 0.92515373
12.155986 -14.860366 3.2647541 0.92505866
12.153125 -14.895327 3.2700641 0.92496324
12.150244 -14.93037 3.2753863 0.92486751
12.147367 -14.965487 3.2807214 0.92477143
12.148369 -15.005512 3.2871141 0.92465174
12.103374 -14.988735 3.2810686 0.92480624
12.089213 -15.010038 3.2833655 0.92477679
12.075053 -15.031367 3.2856591 0.92474711
12.060879 -15.052714 3.2879553 0.92471731
12.046694 -15.074067 3.2902515 0.92468739
12.03249 -15.095444 3.2925487 0.92465734
12.018271 -15.116855 3.2948472 0.92462713
12.004047 -15.138262 3.2971466 0.92459685
11.989824 -15.159687 3.2994432 0.92456639
11.975595 -15.181123 3.3017414 0.92453575
11.961338 -15.202593 3.30404 0.92450505
11.947065 -15.224082 3.3063397 0.92447412
11.932793 -15.245576 3.30864 0.92444313
11.918515 -15.267085 3.3109398 0.92441201
