# .PCD v0.7 - Point Cloud Data file format
VERSION 0.7
FIELDS x y z intensity
SIZE 4 4 4 4
TYPE F F F F
COUNT 1 1 1 1
WIDTH 1126
HEIGHT 1
VIEWPOINT 0 0 0 1 0 0 0
POINTS 1126
DATA ascii
-17.736464 -8.5405226 -2.383898 0.92374647
-17.788111 -8.5286131 -2.3853786 0.92359394
-17.839966 -8.5166407 -2.3868673 0.92344069
-17.89205 -8.5045996 -2.3883648 0.92328662
-17.944286 -8.4925337 -2.3898644 0.92313182
-17.996763 -8.4803953 -2.3913739 0.92297626
-18.049452 -8.4682274 -2.3928866 0.92281979
-18.102339 -8.455986 -2.3944085 0.92266262
-18.155439 -8.4436913 -2.3959377 0.9225046
-18.208775 -8.4313374 -2.3974733 0.92234576
-18.26231 -8.4189405 -2.3990149 0.92218608
-18.316044 -8.4064941 -2.4005623 0.92202568
-18.370024 -8.3939743 -2.4021196 0.92186439
-18.424223 -8.3813963 -2.4036827 0.92170227
-18.478628 -8.368784 -2.405252 0.92153925
-18.533247 -8.3560934 -2.4068284 0.92137551
-18.58812 -8.343359 -2.4084132 0.92121083
-18.643192 -8.3305616 -2.4100039 0.92104536
-18.698521 -8.3177099 -2.4116018 0.92087895
-18.754076 -8.3047848 -2.4132094 0.9207117
-18.809872 -8.2918158 -2.4148216 0.92054349
-18.865835 -8.2787933 -2.4164412 0.92037469
-18.908539 -8.2597799 -2.4163404 0.92025954
-18.946314 -8.2385254 -2.4155929 0.92016435
-18.984179 -8.2172117 -2.414844 0.92006868
-19.022133 -8.1958399 -2.4140966 0.9199726
-19.060156 -8.1744385 -2.4133468 0.91987616
-19.098286 -8.1529541 -2.4125991 0.91977924
-19.136499 -8.1314354 -2.41185 0.91968191
-19.174786 -8.1098728 -2.4110963 0.91958416
-19.213198 -8.0882273 -2.4103453 0.91948587
-19.251669 -8.0665522 -2.409591 0.91938728
-19.290249 -8.0448189 -2.4088376 0.91928822
-19.328915 -8.0230274 -2.4080818 0.91918868
-19.36768 -8.0011864 -2.4073265 0.91908872
-19.406528 -7.9792724 -2.4065723 0.91898835
-19.445482 -7.9573092 -2.4058144 0.9188875
-19.489161 -7.937202 -2.4056304 0.91876769
-19.553032 -7.9251413 -2.4079132 0.91856724
-19.617178 -7.9130173 -2.4102068 0.91836578
-19.681635 -7.9008298 -2.4125123 0.91816324
-19.746454 -7.8885741 -2.4148324 0.91795933
-19.811567 -7.8762598 -2.4171631 0.91775435
-19.877056 -7.8638668 -2.4195108 0.917548
-19.942846 -7.8514256 -2.4218669 0.91734052
-20.008968 -7.8389063 -2.4242387 0.91713184
-20.07543 -7.8263426 -2.4266162 0.91692191
-20.142212 -7.8136959 -2.4290133 0.91671079
-15.479297 -5.9751415 -1.8623407 0.93539464
-15.515386 -5.9593453 -1.8623203 0.93529058
-15.551562 -5.943491 -1.8623 0.93518603
-15.587827 -5.9275827 -1.8622798 0.93508118
-15.624224 -5.9116354 -1.8622593 0.93497568
-15.660742 -5.8956199 -1.8622389 0.93486977
-15.697368 -5.87957 -1.8622183 0.93476331
-15.734081 -5.8634472 -1.8621976 0.9346565
-15.770927 -5.8472705 -1.8621771 0.93454909
-15.807866 -5.8310304 -1.8621563 0.93444133
-15.844955 -5.8147411 -1.8621355 0.93433291
-15.882133 -5.7983985 -1.8621147 0.93422413
-15.919453 -5.7819967 -1.8620938 0.93411469
-15.956841 -5.7655468 -1.8620727 0.93400496
-15.99437 -5.7490087 -1.8620516 0.93389469
-16.032017 -5.7324414 -1.8620306 0.93378389
-16.069799 -5.7158103 -1.8620094 0.93367249
-16.107676 -5.6991014 -1.8619882 0.93356073
-16.145693 -5.682373 -1.8619668 0.93344831
-16.183847 -5.6655664 -1.8619455 0.93333536
-16.222075 -5.6486816 -1.8619241 0.93322206
-16.260445 -5.631753 -1.8619026 0.93310815
-16.298944 -5.6147656 -1.861881 0.93299371
-16.337578 -5.5977149 -1.8618594 0.93287873
-16.376318 -5.5806003 -1.8618376 0.93276328
-16.41519 -5.5634227 -1.8618159 0.93264729
-16.45418 -5.5461764 -1.8617941 0.93253076
-16.493315 -5.5288963 -1.8617721 0.93241358
-16.532574 -5.5115232 -1.8617501 0.93229598
-16.571968 -5.4940915 -1.8617281 0.93217778
-16.611464 -5.4766016 -1.8617059 0.93205911
-16.651123 -5.4590626 -1.8616837 0.93193972
-16.690908 -5.4414454 -1.8616614 0.93181986
-16.73082 -5.4237695 -1.861639 0.93169945
-16.770859 -5.4060059 -1.8616166 0.93157852
-16.811049 -5.3881931 -1.8615942 0.93145692
-16.851362 -5.370327 -1.8615717 0.93133485
-16.891827 -5.3523827 -1.861549 0.93121213
-16.932407 -5.3343649 -1.8615263 0.93108892
-16.973125 -5.3162937 -1.8615034 0.93096507
-17.013998 -5.2981443 -1.8614807 0.93084061
-17.054985 -5.2799315 -1.8614576 0.93071568
-17.096142 -5.2616601 -1.8614346 0.93059003
-17.137451 -5.2433004 -1.8614116 0.93046379
-17.178905 -5.2248826 -1.8613883 0.93033689
-17.220469 -5.2063966 -1.861365 0.93020958
-17.262188 -5.1878419 -1.8613418 0.93008155
-17.304058 -5.169209 -1.8613183 0.92995298
-17.346079 -5.1504979 -1.8612949 0.9298237
-17.388247 -5.1317334 -1.8612711 0.92969382
-17.430567 -5.1128907 -1.8612475 0.92956334
-17.473022 -5.0939646 -1.8612238 0.92943227
-17.515654 -5.0749903 -1.8611999 0.92930049
-17.558422 -5.0559225 -1.8611761 0.92916811
-17.601366 -5.0367918 -1.8611521 0.92903501
-17.644428 -5.0175681 -1.8611281 0.92890143
-17.687685 -4.9983053 -1.8611038 0.92876703
-17.731073 -4.9789305 -1.8610796 0.92863214
-17.774624 -4.959487 -1.8610553 0.92849654
-17.818335 -4.9399805 -1.8610307 0.92836022
-17.862221 -4.9204102 -1.8610063 0.92822319
-17.906254 -4.9007177 -1.8609816 0.92808563
-17.950449 -4.8809814 -1.8609568 0.92794734
-17.994799 -4.8611474 -1.8609321 0.9278084
-18.039354 -4.8412547 -1.8609072 0.92766869
-18.084047 -4.821279 -1.8608822 0.92752832
-18.12891 -4.8012204 -1.8608572 0.9273873
-18.173931 -4.7810788 -1.860832 0.92724556
-18.219145 -4.7608643 -1.8608068 0.9271031
-18.264492 -4.7405515 -1.8607813 0.92696005
-18.31004 -4.7201657 -1.860756 0.92681623
-18.355766 -4.699707 -1.8607304 0.92667162
-18.401655 -4.6791553 -1.8607048 0.92652637
-18.447729 -4.6585107 -1.8606791 0.92638034
-18.493988 -4.6377831 -1.8606532 0.92623359
-18.540415 -4.6169872 -1.8606273 0.92608607
-18.586996 -4.5960889 -1.8606013 0.92593801
-18.633802 -4.5751266 -1.8605752 0.92578894
-18.680786 -4.5540771 -1.860549 0.92563921
-18.727949 -4.5329247 -1.8605226 0.92548871
-18.775288 -4.5116992 -1.8604962 0.92533749
-18.822811 -4.4903517 -1.8604696 0.92518556
-18.870556 -4.468945 -1.8604429 0.92503273
-18.91847 -4.4474411 -1.8604162 0.92487913
-18.966543 -4.4258347 -1.8603894 0.92472494
-19.014862 -4.4041648 -1.8603624 0.92456973
-19.063345 -4.3823729 -1.8603354 0.92441386
-19.112036 -4.3605127 -1.8603082 0.92425716
-19.160898 -4.3385544 -1.8602809 0.92409974
-19.209986 -4.3164892 -1.8602535 0.92394137
-19.259262 -4.2943406 -1.8602259 0.92378229
-19.30875 -4.27209 -1.8601984 0.92362231
-19.358427 -4.2497559 -1.8601706 0.92346162
-19.408316 -4.2273145 -1.8601428 0.92330003
-19.458422 -4.2047801 -1.8601148 0.92313755
-19.50872 -4.182158 -1.8600868 0.92297429
-19.559242 -4.1594191 -1.8600585 0.92281014
-19.60998 -4.1365919 -1.8600303 0.92264509
-19.660946 -4.113657 -1.8600018 0.92247915
-19.712074 -4.0906544 -1.8599733 0.92231256
-19.763447 -4.0674853 -1.8599447 0.92214495
-19.815039 -4.0442576 -1.8599159 0.92197645
-19.866884 -4.0209179 -1.8598869 0.92180699
-19.918886 -3.9975047 -1.8598579 0.92163682
-19.971142 -3.9739599 -1.8598287 0.92146564
-20.023647 -3.9503124 -1.8597995 0.9212935
-20.076338 -3.9265478 -1.8597702 0.92112058
-20.129286 -3.902705 -1.8597406 0.92094666
-20.182451 -3.8787107 -1.8597109 0.92077184
-20.235859 -3.8546288 -1.859681 0.92059606
-20.289467 -3.8304393 -1.8596513 0.92041945
-20.34334 -3.8061523 -1.8596213 0.92024177
-20.39747 -3.7817383 -1.859591 0.92006308
-20.45182 -3.7572315 -1.8595606 0.91988349
-20.506405 -3.7325828 -1.8595303 0.91970301
-20.561211 -3.7078416 -1.8594996 0.91952157
-20.616333 -3.6829784 -1.8594689 0.91933894
-20.671656 -3.6580126 -1.8594382 0.91915542
-20.727226 -3.6329346 -1.8594072 0.91897094
-20.783081 -3.6077244 -1.8593758 0.91878539
-20.839174 -3.5823779 -1.8593447 0.91859883
-20.895512 -3.556958 -1.8593134 0.91841131
-20.952095 -3.5313573 -1.8592818 0.91822278
-21.008945 -3.5056982 -1.8592499 0.91803324
-21.066084 -3.4798827 -1.8592182 0.91784251
-21.123491 -3.4539404 -1.8591862 0.91765076
-21.181122 -3.4278905 -1.859154 0.91745806
-21.239067 -3.4017236 -1.8591218 0.9172641
-21.297245 -3.3754199 -1.8590893 0.91706926
-21.355738 -3.3489892 -1.8590567 0.91687316
-21.414486 -3.3224218 -1.859024 0.91667604
-21.473505 -3.2957275 -1.858991 0.91647786
-21.532822 -3.2689159 -1.8589579 0.91627848
-21.592373 -3.2419677 -1.8589249 0.91607821
-21.652279 -3.2149119 -1.8588914 0.91587651
-21.71244 -3.1876757 -1.8588579 0.91567379
-21.772909 -3.160332 -1.8588241 0.91546988
-21.833628 -3.1328516 -1.8587904 0.9152649
-21.894672 -3.1052392 -1.8587564 0.91505873
-21.956011 -3.0774901 -1.8587222 0.91485137
-22.01766 -3.0496044 -1.8586878 0.91464275
-22.079609 -3.0215673 -1.8586532 0.914433
-22.141846 -2.9933934 -1.8586186 0.91422206
-22.204374 -2.9650781 -1.8585838 0.91400999
-22.26726 -2.9366162 -1.8585486 0.91379654
-22.330423 -2.9080126 -1.8585135 0.91358197
-22.393955 -2.8792627 -1.8584781 0.91336596
-22.457748 -2.8503759 -1.8584425 0.91314894
-22.521929 -2.8213282 -1.8584068 0.91293043
-22.586376 -2.7921386 -1.8583709 0.91271079
-22.651171 -2.7628026 -1.8583348 0.91248983
-22.716288 -2.7333057 -1.8582984 0.91226763
-22.781757 -2.7036669 -1.8582619 0.91204399
-22.847548 -2.6738427 -1.8582253 0.9118191
-22.913696 -2.6439061 -1.8581884 0.91159284
-22.98015 -2.6137645 -1.8581516 0.91136539
-23.046997 -2.5835156 -1.8581142 0.91113639
-23.114149 -2.5530713 -1.8580769 0.9109062
-23.181704 -2.5224755 -1.8580393 0.91067445
-23.249575 -2.4917188 -1.8580014 0.91044146
-23.317783 -2.4608006 -1.8579633 0.91020715
-23.38641 -2.4297071 -1.8579251 0.90997118
-23.455357 -2.3984618 -1.8578868 0.90973401
-23.524693 -2.3670166 -1.8578482 0.90949529
-23.594423 -2.3354297 -1.8578093 0.90925509
-23.664492 -2.3036766 -1.8577702 0.90901351
-23.73498 -2.2717431 -1.857731 0.90877038
-23.805811 -2.2396338 -1.8576914 0.90852582
-23.877016 -2.207329 -1.8576518 0.9082799
-23.948666 -2.1748779 -1.857612 0.90803218
-24.149736 -2.1537108 -1.8675534 0.90731138
-24.093081 -2.1093993 -1.8575314 0.90753251
-24.165854 -2.0763817 -1.8574909 0.90728045
-24.239086 -2.0431933 -1.85745 0.90702665
-24.312719 -2.0098095 -1.8574091 0.9067713
-24.386763 -1.9762304 -1.8573679 0.90651435
-24.795019 -1.9689746 -1.8826714 0.90503931
-25.242172 -1.9634472 -1.9107333 0.90342546
-25.782915 -1.9635961 -1.9456507 0.90147525
-26.044752 -1.9412304 -1.9593376 0.90053922
-26.125107 -1.904812 -1.9592928 0.90026104
-26.205919 -1.8681445 -1.9592477 0.89998108
-26.287182 -1.8312793 -1.9592025 0.89969945
-26.368942 -1.7942333 -1.9591569 0.89941591
-26.451168 -1.7569238 -1.9591111 0.89913058
-26.533821 -1.7194555 -1.9590651 0.89884365
-26.617016 -1.6817065 -1.9590188 0.89855462
-26.700701 -1.6437695 -1.9589721 0.89826375
-26.784824 -1.6055957 -1.9589252 0.89797121
-26.869516 -1.5672046 -1.9588782 0.89767653
-26.954653 -1.5285791 -1.9588307 0.89738011
-27.040335 -1.4897168 -1.9587829 0.89708167
-27.126478 -1.4506421 -1.958735 0.8967815
-27.213207 -1.4112964 -1.9586866 0.89647907
-27.300415 -1.3717334 -1.9586381 0.89617485
-27.388184 -1.3319556 -1.9585893 0.89586848
-27.476469 -1.2918921 -1.95854 0.8955602
-27.565285 -1.2515967 -1.9584906 0.8952499
-27.654682 -1.2110889 -1.9584408 0.8949374
-27.74457 -1.1702807 -1.9583907 0.89462304
-27.835062 -1.1292553 -1.9583403 0.89430642
-27.926142 -1.0879565 -1.9582896 0.89398754
-28.017738 -1.046438 -1.9582385 0.89366674
-28.109894 -1.0046142 -1.9581872 0.89334387
-28.202673 -0.96253413 -1.9581355 0.89301866
-28.296028 -0.92018551 -1.9580836 0.89269125
-28.389957 -0.87759274 -1.9580313 0.8923617
-28.484482 -0.83471191 -1.9579786 0.89202994
-28.579647 -0.79155028 -1.9579256 0.89169574
-28.675364 -0.74813473 -1.9578723 0.89135951
-28.771793 -0.70443112 -1.9578185 0.8910206
-28.868784 -0.66043699 -1.9577645 0.8906796
-28.9664 -0.61618161 -1.95771 0.89033628
-29.064693 -0.57158935 -1.9576554 0.88999039
-29.16362 -0.52677244 -1.9576002 0.88964212
-29.263144 -0.48160642 -1.9575448 0.8892917
-29.363363 -0.43616697 -1.957489 0.88893861
-29.464243 -0.39040527 -1.9574329 0.88858312
-29.56579 -0.34434813 -1.9573762 0.88822514
-29.668053 -0.29800048 -1.9573193 0.88786447
-29.770952 -0.25134033 -1.9572619 0.88750142
-29.874594 -0.20434815 -1.9572042 0.88713568
-29.978918 -0.1570459 -1.957146 0.88676739
-30.083961 -0.10944336 -1.9570876 0.88639641
-30.189718 -0.061484374 -1.9570287 0.88602281
-30.296232 -0.013198242 -1.9569694 0.8856464
-30.403488 0.035388183 -1.9569095 0.88526726
-30.511362 0.084331051 -1.9568495 0.88488579
-30.620102 0.13359863 -1.9567889 0.88450122
-30.729593 0.18320556 -1.9567279 0.88411379
-30.839849 0.23318604 -1.9566665 0.88372356
-30.950819 0.28350586 -1.9566047 0.8833307
-31.062683 0.33416992 -1.9565424 0.88293463
-31.175272 0.38521728 -1.9564795 0.88253582
-31.288673 0.43661621 -1.9564165 0.88213402
-31.402937 0.48837158 -1.9563528 0.88172907
-31.517965 0.54051512 -1.9562887 0.88132131
-31.633886 0.59301269 -1.9562242 0.88091034
-31.750568 0.64591062 -1.9561591 0.8804965
-31.86817 0.6991992 -1.9560935 0.88007933
-31.986633 0.75286132 -1.9560276 0.87965906
-32.105904 0.8068921 -1.9559611 0.87923574
-32.22612 0.86134273 -1.9558941 0.87880903
-32.347225 0.91620845 -1.9558266 0.87837911
-32.469231 0.97148436 -1.9557588 0.87794584
-32.592152 1.0271533 -1.9556903 0.8775093
-32.715996 1.0832397 -1.9556212 0.87706941
-32.840782 1.1397607 -1.9555517 0.87662607
-32.966576 1.1967114 -1.9554816 0.8761791
-33.093269 1.2540869 -1.9554111 0.87572879
-33.220921 1.3119043 -1.9553399 0.87527508
-33.349506 1.3701489 -1.9552683 0.87481797
-33.479221 1.4288892 -1.955196 0.87435675
-33.609943 1.4880029 -1.9551231 0.87389195
-33.741611 1.5476538 -1.9550498 0.8734237
-33.874325 1.6077417 -1.9549758 0.87295175
-34.008087 1.668308 -1.9549012 0.87247592
-34.142979 1.7293189 -1.954826 0.8719961
-34.278816 1.7908642 -1.9547504 0.87151283
-34.415874 1.8528589 -1.954674 0.8710252
-34.55397 1.915354 -1.9545971 0.87053382
-34.69318 1.9783936 -1.9545195 0.87003845
-34.833607 2.0419116 -1.9544412 0.86953872
-34.975033 2.1059203 -1.9543624 0.86903542
-35.117767 2.1704857 -1.9542828 0.86852747
-35.261612 2.2355711 -1.9542027 0.86801559
-35.406723 2.3011596 -1.9541218 0.86749911
-35.552975 2.367346 -1.9540403 0.86697859
-35.700378 2.4340281 -1.953958 0.86645401
-35.849178 2.5013134 -1.9538752 0.86592442
-35.999161 2.5691407 -1.9537916 0.86539066
-36.150345 2.6375194 -1.9537073 0.86485261
-36.302826 2.7065086 -1.9536223 0.86430997
-36.456791 2.7760985 -1.9535365 0.86376202
-36.611919 2.8462403 -1.9534501 0.86321002
-36.768478 2.9170287 -1.9533628 0.86265296
-36.926414 2.9883838 -1.9532748 0.86209106
-37.085659 3.0603638 -1.953186 0.86152452
-37.246384 3.1330223 -1.9530964 0.86095273
-37.408466 3.2062864 -1.9530061 0.86037624
-37.571999 3.2801878 -1.9529148 0.85979456
-37.736996 3.3547533 -1.9528228 0.85920781
-37.903484 3.4299877 -1.9527301 0.85861582
-38.071491 3.5058789 -1.9526364 0.85801852
-38.241016 3.5824656 -1.9525419 0.85741585
-38.411949 3.6597388 -1.9524467 0.8568083
-38.584618 3.7377417 -1.9523504 0.85619473
-38.7589 3.8164575 -1.9522532 0.85557544
-38.934811 3.8958471 -1.9521551 0.85495055
-39.112183 3.9760156 -1.9520563 0.85432059
-39.291313 4.0569139 -1.9519564 0.85368448
-39.47216 4.138567 -1.9518555 0.85304242
-39.654732 4.220962 -1.9517539 0.8523944
-39.838955 4.3041916 -1.951651 0.85174066
-40.025059 4.3881469 -1.9515471 0.85108042
-40.212967 4.4729686 -1.9514425 0.85041398
-40.402603 4.5585594 -1.9513367 0.84974158
-40.594109 4.6450024 -1.9512299 0.84906268
-40.787502 4.7322679 -1.951122 0.84837735
-40.982716 4.8203931 -1.9510133 0.84768575
-41.179886 4.9093699 -1.9509033 0.84698743
-41.379013 4.9992309 -1.9507922 0.84628242
-41.580261 5.089983 -1.95068 0.84557015
-41.78347 5.1816406 -1.9505666 0.8448512
-41.988743 5.2741919 -1.9504522 0.84412521
-42.196014 5.3677416 -1.9503366 0.84339237
-42.405533 5.4622021 -1.9502196 0.8426519
-42.617126 5.5576344 -1.9501017 0.8419044
-42.830818 5.6539989 -1.9499825 0.84114981
-43.046997 5.7514234 -1.949862 0.84038675
-43.265205 5.8498373 -1.9497403 0.83961684
-43.485878 5.9492526 -1.9496171 0.83883864
-43.708679 6.049736 -1.9494929 0.83805323
-43.409443 6.077837 -1.9260881 0.83903688
-42.923233 6.078536 -1.8945743 0.840657
-42.495708 6.0860801 -1.8658576 0.84208077
-42.294666 6.1250753 -1.8472263 0.84273463
-42.517597 6.2254648 -1.8471018 0.84194338
-42.742996 6.3270154 -1.8469759 0.84114367
-42.970795 6.4296556 -1.846849 0.84033591
-42.628288 6.4468002 -1.8222317 0.84146905
-42.18161 6.4469237 -1.7933396 0.84295946
-41.743904 6.447041 -1.7650297 0.84442216
-41.315418 6.4471579 -1.7373049 0.84585613
-41.21014 6.496943 -1.7232996 0.84618366
-41.193554 6.5605001 -1.7130215 0.84620684
-41.003643 6.596096 -1.6955792 0.84682471
-40.611912 6.5983787 -1.6699249 0.84813678
-39.692986 6.512876 -1.6228938 0.85126996
-39.69582 6.5771799 -1.6137626 0.85122615
-39.51088 6.6100731 -1.5970293 0.8518309
-39.538116 6.6782517 -1.5889088 0.85170209
-39.446869 6.7263403 -1.5760406 0.85198271
-39.592731 6.8149438 -1.5726275 0.85144281
-39.620132 6.8835154 -1.5644619 0.85131228
-38.441887 6.740715 -1.5089499 0.85536224
-38.395943 6.7945776 -1.4981683 0.85548639
-38.381268 6.8538499 -1.488624 0.85550159
-38.396309 6.9184399 -1.4802215 0.85541308
-38.467163 6.9932809 -1.4739491 0.85512996
-38.457443 7.0535741 -1.4645691 0.85512686
-48.715576 9.0136986 -1.8438042 0.82011801
-49.014736 9.1481934 -1.8436373 0.81907398
-49.317818 9.2844515 -1.8434681 0.81801713
-49.624725 9.4224215 -1.8432968 0.816948
-49.935852 9.5621958 -1.8431231 0.81586516
-50.250969 9.7038832 -1.8429474 0.81476945
-50.570164 9.8473005 -1.8427691 0.81366074
-50.893665 9.9926863 -1.8425887 0.81253809
-51.743103 10.243235 -1.8611522 0.80967665
-52.058914 10.390112 -1.8602595 0.80858225
-32.002075 6.438921 -1.1360149 0.87752247
-31.745424 6.4387817 -1.1194183 0.87840754
-31.622244 6.4650903 -1.1076181 0.87881446
-31.501154 6.4914184 -1.0959425 0.87921411
-31.565876 6.5559835 -1.0907383 0.87894601
-31.534023 6.6005783 -1.0821906 0.87902462
-31.552504 6.6557178 -1.0753642 0.87892205
-31.254112 6.643579 -1.0577989 0.87995923
-31.254469 6.6944823 -1.0504175 0.8799215
-31.251133 6.7446094 -1.0429012 0.87989676
-31.247799 6.7947335 -1.0353845 0.87987179
-31.244465 6.8448825 -1.0278615 0.87984645
-31.241129 6.8950291 -1.0203409 0.87982088
-31.238596 6.9454002 -1.0128429 0.87979209
-31.246923 6.9981909 -1.005689 0.87972385
-31.297943 7.0606613 -0.99988598 0.87950128
-31.333426 7.1198215 -0.99356705 0.87933439
-31.364521 7.1780953 -0.9870863 0.87918293
-31.390749 7.2353563 -0.98043513 0.87904876
-31.899841 7.4048657 -0.98872852 0.87717241
-42.950516 10.040278 -1.3210108 0.83818799
-42.831524 10.082502 -1.3071169 0.83854538
-42.831619 10.152656 -1.2968926 0.83849204
-42.831718 10.222813 -1.2866534 0.83843827
-42.83181 10.29301 -1.2764039 0.83838415
-42.831909 10.363259 -1.2661743 0.83832967
-42.832001 10.433555 -1.2559086 0.83827478
-42.832104 10.503825 -1.2456455 0.83821946
-42.832195 10.574217 -1.235373 0.83816379
-42.832294 10.644596 -1.2251033 0.83810771
-42.832386 10.715036 -1.2148116 0.83805126
-42.832485 10.785489 -1.2045231 0.8379944
-42.832581 10.855989 -1.1942165 0.83793718
-42.832676 10.926554 -1.1839082 0.83787954
-42.832771 10.997111 -1.1735942 0.83782154
-42.83287 11.067733 -1.1632671 0.83776313
-42.83297 11.138428 -1.1529336 0.8377043
-42.833065 11.209165 -1.1425948 0.83764505
-42.833157 11.2799 -1.1322489 0.83758551
-42.833252 11.350652 -1.1218861 0.83752555
-42.833355 11.421528 -1.1115289 0.83746511
-42.83345 11.492397 -1.1011548 0.83740437
-42.833549 11.56332 -1.0907663 0.83734316
-42.833641 11.634273 -1.0803778 0.83728164
-42.83374 11.705258 -1.0699866 0.83721966
-42.833836 11.776355 -1.0595788 0.83715731
-42.833931 11.847446 -1.0491729 0.83709455
-42.834034 11.91859 -1.0387363 0.83703136
-42.834129 11.989786 -1.0283184 0.83696783
-42.834229 12.060998 -1.0178692 0.83690387
-42.834324 12.13226 -1.0074266 0.83683956
-42.834423 12.203596 -0.99697179 0.83677477
-42.834515 12.274999 -0.98650861 0.83670962
-42.834618 12.3464 -0.97601616 0.83664405
-42.834709 12.417899 -0.96554583 0.83657813
-42.834812 12.489386 -0.95504934 0.83651179
-42.834908 12.560903 -0.9445467 0.83644509
-34.053585 10.0428 -0.74255109 0.86758184
-33.957634 10.071303 -0.73211682 0.86787385
-33.957836 10.128188 -0.72377521 0.86781752
-33.958042 10.185104 -0.71541911 0.86776078
-33.958248 10.242089 -0.707057 0.86770374
-33.958447 10.299079 -0.69868875 0.8676464
-22.138897 6.7515378 -0.4500415 0.91155851
-22.119532 6.7827682 -0.4441835 0.91159314
-22.121197 6.8204346 -0.43874785 0.91154736
-33.959263 10.527493 -0.66514039 0.86741358
-33.959465 10.584731 -0.65673184 0.86735451
-33.959675 10.64196 -0.64831662 0.86729521
-33.959877 10.699265 -0.63989091 0.86723542
-33.960079 10.756611 -0.63146251 0.8671754
-33.960281 10.813989 -0.62302566 0.86711502
-33.960491 10.871426 -0.61458129 0.86705422
-33.960693 10.928872 -0.60612392 0.86699319
-33.960903 10.98643 -0.59765989 0.86693174
-33.961109 11.043984 -0.5891844 0.86686993
-33.961311 11.101555 -0.58070129 0.86680794
-33.961514 11.159214 -0.57221574 0.86674547
-33.961723 11.216904 -0.56371427 0.86668265
-33.961929 11.27466 -0.55521405 0.86661953
-33.962135 11.332443 -0.54669797 0.86655605
-33.962337 11.390271 -0.53817427 0.86649227
-33.96254 11.448166 -0.52964306 0.86642808
-33.962753 11.506077 -0.52109987 0.86636358
-33.962959 11.564045 -0.51255339 0.86629874
-33.963161 11.622083 -0.50399476 0.86623353
-33.963375 11.680163 -0.49542525 0.86616796
-33.954517 11.735136 -0.48671982 0.8661353
-33.95472 11.793308 -0.47813568 0.86606908
-33.954926 11.851484 -0.46955153 0.86600256
-33.955135 11.909743 -0.46094269 0.86593556
-42.838367 15.098947 -0.57066816 0.83385152
-42.838467 15.172547 -0.55978972 0.83376986
-42.83857 15.246179 -0.54890549 0.83368784
-42.838665 15.319808 -0.53800565 0.83360547
-42.838768 15.393587 -0.52708966 0.83352256
-42.838871 15.467414 -0.51617402 0.83343923
-42.838974 15.541255 -0.50522566 0.83335555
-42.839077 15.615228 -0.49428251 0.83327138
-42.830112 15.685898 -0.48322082 0.83321899
-42.830215 15.759932 -0.47225782 0.83313406
-42.830311 15.834074 -0.46127319 0.83304864
-31.473406 16.355627 0.36768997 0.86772066
-31.358999 16.355656 0.37535048 0.86807263
-31.24523 16.355686 0.38296279 0.86842245
-31.132137 16.355715 0.39054763 0.86877006
-31.019609 16.355732 0.39806625 0.86911583
-30.907812 16.35574 0.40555495 0.86945927
-30.796654 16.355761 0.41299438 0.86980051
-30.686245 16.355791 0.42040846 0.8701393
-30.576443 16.355822 0.42777205 0.87047613
-27.712397 14.876963 0.39575577 0.88177127
-27.700874 14.923982 0.40365142 0.88172817
-30.250723 16.355909 0.44962448 0.87147433
-30.143408 16.35594 0.45683441 0.87180293
-30.036705 16.35597 0.46399811 0.8721295
-29.930605 16.355995 0.47112793 0.87245411
-29.825109 16.356026 0.47821227 0.87277663
-29.720184 16.356052 0.48525542 0.8730973
-29.615864 16.356087 0.49227995 0.87341601
-29.512156 16.35611 0.49925444 0.87373269
-29.409 16.35614 0.50619322 0.87404746
-29.30644 16.356167 0.51309693 0.87436032
-29.204418 16.356195 0.51996917 0.87467134
-29.102985 16.35622 0.52680206 0.87498045
-29.00211 16.356249 0.53359389 0.87528771
-28.901768 16.356276 0.54035264 0.87559319
-28.801989 16.356304 0.54707414 0.87589675
-28.702749 16.356333 0.55376768 0.87619853
-28.604057 16.356361 0.56042433 0.87649852
-28.505854 16.356388 0.56704801 0.87679684
-28.408234 16.356411 0.57363552 0.8770932
-28.311123 16.35644 0.5801912 0.87738788
-25.639086 14.863447 0.53316253 0.88819617
-25.57369 14.87621 0.53952008 0.88837385
-25.571611 14.925761 0.54720837 0.88829112
-25.571615 14.976589 0.55495423 0.88819945
-27.833246 16.356569 0.61247939 0.87883562
-27.73921 16.356592 0.61884105 0.87911999
-27.501904 16.271614 0.62192231 0.87999058
-27.346548 16.23436 0.62675232 0.88052756
-27.234232 16.222219 0.63249767 0.88088906
-27.3678 16.356699 0.64397782 0.88024163
-27.276186 16.356724 0.65018815 0.8805179
-27.185015 16.356749 0.65636486 0.88079268
-27.09432 16.35677 0.66251355 0.88106585
-27.004093 16.356796 0.66863048 0.8813374
-26.836391 16.309467 0.6727702 0.88192916
-26.490059 16.152626 0.67228073 0.8832612
-26.151564 15.99924 0.67180192 0.884565
-25.821424 15.849719 0.67133528 0.88583803
-25.498735 15.703508 0.67087936 0.88708401
-25.183529 15.560691 0.67043346 0.88830256
-25.049019 15.528687 0.67467695 0.88876843
-25.049097 15.579926 0.68251234 0.88867152
-25.049179 15.631245 0.69035995 0.88857418
-25.049242 15.682668 0.69823134 0.88847649
-25.04932 15.734162 0.70611405 0.88837844
-25.049398 15.785723 0.71400982 0.88827997
-25.049477 15.837365 0.72191817 0.88818115
-25.049555 15.889113 0.72984266 0.88808191
-25.049633 15.940932 0.73778367 0.88798225
-25.049717 15.992868 0.74573773 0.88788217
-25.049799 16.044847 0.75370467 0.88778186
-25.049877 16.096949 0.76169538 0.88768101
-25.049955 16.149111 0.76969558 0.88757986
-25.050034 16.201382 0.77770948 0.88747823
-25.050117 16.253716 0.7857396 0.88737625
-25.050205 16.306147 0.79378736 0.88727391
-25.048246 16.357336 0.80178452 0.88717979
-24.968052 16.357359 0.80726457 0.88741732
-24.888237 16.357378 0.81272382 0.88765359
-24.808817 16.357403 0.81815779 0.88788849
-24.729765 16.357424 0.82356399 0.88812214
-24.651064 16.357441 0.82895613 0.88835454
-24.572748 16.357466 0.83431929 0.88858569
-24.49477 16.357491 0.83965683 0.88881564
-24.417192 16.35751 0.8449797 0.88904428
-24.339926 16.357531 0.8502748 0.8892718
-24.263031 16.357548 0.85554576 0.88949805
-24.186514 16.357573 0.86079758 0.889723
-24.110312 16.357592 0.86602432 0.88994688
-24.034472 16.357615 0.8712346 0.8901695
-23.958984 16.357626 0.87641859 0.89039093
-23.883793 16.357656 0.88157791 0.89061129
-23.808998 16.357676 0.8867268 0.89083034
-23.734526 16.357695 0.89184433 0.89104831
-23.660366 16.357712 0.89694625 0.89126515
-23.586548 16.357735 0.90202284 0.8914808
-23.513052 16.357758 0.90708297 0.89169538
-23.439882 16.357779 0.91211838 0.89190876
-23.36705 16.357798 0.91713822 0.89212108
-23.294512 16.357815 0.92213577 0.89233232
-23.2223 16.357836 0.92711288 0.89254242
-23.150415 16.357851 0.93206739 0.89275146
-23.078833 16.357876 0.93700421 0.89295936
-23.007572 16.357893 0.94192368 0.89316624
-22.936625 16.357912 0.94682294 0.893372
-22.86598 16.357935 0.95170391 0.89357668
-22.795624 16.357954 0.95656049 0.89378035
-22.725595 16.357973 0.96140027 0.89398295
-22.655849 16.35799 0.9662236 0.89418453
-22.586395 16.358007 0.97102249 0.8943851
-22.517231 16.358027 0.97580856 0.89458466
-22.448383 16.358046 0.98058146 0.89478314
-22.379833 16.35807 0.98532146 0.89498055
-22.311537 16.35808 0.99005568 0.89517713
-22.243568 16.358105 0.99476606 0.89537251
-22.175869 16.35812 0.99945724 0.895567
-22.108423 16.358139 1.0041307 0.8957606
-22.041298 16.358156 1.0087876 0.89595306
-21.974422 16.358175 1.0134282 0.89614463
-21.940289 16.382427 1.019556 0.89618993
-21.941187 16.432848 1.0273262 0.89607817
-21.942089 16.483393 1.0351042 0.89596593
-21.942987 16.534023 1.0428996 0.89585328
-21.943892 16.584751 1.0507145 0.89574021
-21.944799 16.635605 1.058553 0.89562666
-21.945707 16.686552 1.0664054 0.8955127
-21.946621 16.737614 1.0742713 0.89539832
-21.947535 16.788755 1.0821614 0.89528352
-21.948452 16.840025 1.0900676 0.89516824
-21.949366 16.891399 1.0979905 0.89505249
-21.950277 16.942862 1.1059346 0.89493644
-21.9512 16.994457 1.1138935 0.8948198
-21.952129 17.046154 1.1218718 0.89470273
-21.952406 17.09745 1.1298338 0.89458823
-21.952417 17.148647 1.1378062 0.89447445
-21.952421 17.199945 1.1457914 0.8943603
-21.952436 17.251328 1.1537971 0.89424568
-21.952436 17.302841 1.1618174 0.89413065
-21.95244 17.354439 1.1698573 0.89401519
-21.952456 17.406162 1.1779188 0.89389926
-21.952465 17.457977 1.1859934 0.89378291
-21.952465 17.509916 1.1940931 0.89366609
-21.952475 17.561954 1.2022072 0.89354885
-21.952484 17.6141 1.2103382 0.89343119
-21.95249 17.666351 1.2184876 0.89331305
-21.952505 17.71871 1.2266587 0.89319444
-21.952509 17.771191 1.2348509 0.89307541
-21.952518 17.823769 1.2430577 0.89295596
-21.952524 17.876467 1.2512864 0.89283603
-21.952528 17.929277 1.2595335 0.89271563
-21.952539 17.982191 1.2677985 0.89259481
-21.952549 18.035234 1.2760832 0.89247346
-21.952559 18.088392 1.2843901 0.89235163
-21.952562 18.14164 1.2927181 0.89222944
-21.952572 18.195011 1.3010625 0.89210677
-21.952578 18.248518 1.3094258 0.89198357
-21.952583 18.302109 1.3178074 0.89186001
-21.952593 18.355835 1.326216 0.89173585
-21.952602 18.409676 1.3346369 0.89161128
-21.952612 18.463633 1.343084 0.89148623
-21.952621 18.517702 1.3515474 0.89136076
-21.952621 18.571899 1.3600307 0.89123476
-21.952637 18.626207 1.3685371 0.89110827
-21.952646 18.680664 1.3770643 0.89098126
-21.95265 18.735205 1.3856138 0.89085388
-21.952662 18.789873 1.3941808 0.89072597
-21.952671 18.844669 1.402769 0.89059758
-21.952671 18.899593 1.4113771 0.89046866
-21.952684 18.954634 1.4200087 0.89033931
-21.952694 19.009811 1.4286573 0.89020938
-21.9527 19.065098 1.4373384 0.89007902
-21.952709 19.120522 1.4460298 0.88994819
-21.952715 19.176079 1.4547474 0.88981676
-21.952724 19.231728 1.4634874 0.88968498
-21.95274 19.287539 1.472245 0.88955253
-21.952744 19.343456 1.4810264 0.88941967
-21.952749 19.399496 1.4898289 0.88928634
-21.952759 19.455692 1.4986583 0.88915241
-21.952768 19.512007 1.5075057 0.88901806
-21.952778 19.568447 1.516371 0.88888311
-21.952787 19.625034 1.5252665 0.88874769
-21.952787 19.681726 1.5341792 0.88861179
-21.952806 19.738562 1.5431211 0.8884753
-21.952812 19.795546 1.5520823 0.88833833
-21.952816 19.852642 1.5610662 0.88820088
-21.952827 19.909887 1.5700722 0.88806283
-21.952831 19.967251 1.5791013 0.88792431
-21.952847 20.024767 1.5881541 0.8877852
-21.952856 20.082426 1.5972295 0.8876456
-21.952856 20.140209 1.6063313 0.88750547
-21.952866 20.198128 1.6154524 0.8873648
-21.952881 20.256184 1.6246012 0.8872236
-21.952885 20.314396 1.6337739 0.8870818
-21.952894 20.372744 1.6429667 0.88693947
-21.952906 20.431234 1.652187 0.88679665
-20.141937 18.799561 1.5243684 0.89549631
-20.072031 18.788055 1.527552 0.89570647
-20.002466 18.776608 1.530727 0.89591545
-19.933218 18.765219 1.533884 0.89612329
-19.864292 18.753872 1.5370305 0.89633
-19.79563 18.742582 1.5401636 0.89653575
-19.727308 18.731342 1.5432862 0.89674038
-19.659292 18.720156 1.5463997 0.89694387
-19.591553 18.709019 1.5494959 0.89714634
-19.52412 18.69792 1.5525813 0.89734787
-19.456987 18.686874 1.5556548 0.89754826
-19.39015 18.675879 1.5587163 0.89774764
-19.323612 18.66493 1.5617632 0.89794594
-19.257338 18.654034 1.5648009 0.89814329
-19.191366 18.643179 1.5678337 0.89833963
-19.125683 18.632376 1.5708457 0.89853495
-19.060272 18.621611 1.5738487 0.89872926
-19.001064 18.61669 1.5773354 0.89889276
-18.947075 18.616703 1.5812217 0.89903027
-18.893236 18.616718 1.5850931 0.89916712
-18.839575 18.616734 1.5889741 0.89930344
-18.786098 18.616753 1.5928266 0.89943904
-18.732758 18.616762 1.5966786 0.89957416
-18.679609 18.616777 1.6005164 0.89970857
-18.626587 18.616791 1.6043413 0.89984256
-18.573755 18.616806 1.6081556 0.89997584
-18.521069 18.616823 1.6119633 0.90010858
-18.468569 18.616838 1.6157609 0.90024066
-18.41621 18.616852 1.6195482 0.90037227
-18.364027 18.616865 1.6233228 0.90050322
-18.311981 18.61688 1.6270906 0.90063363
-18.260101 18.616894 1.6308491 0.90076345
-18.208384 18.616909 1.6345948 0.90089273
-18.156816 18.61692 1.6383305 0.90102148
-18.105415 18.616936 1.6420577 0.90114957
-18.054155 18.616947 1.6457781 0.90127718
-18.003042 18.616962 1.6494868 0.9014042
-17.946421 18.611095 1.6526631 0.90156025
-17.861176 18.575266 1.6531587 0.90186584
-17.776436 18.539616 1.6536528 0.90216964
-17.69228 18.504213 1.6541432 0.90247124
-17.639492 18.50136 1.6575239 0.90260923
-17.598305 18.510536 1.6619737 0.9026866
-17.557211 18.519695 1.6664213 0.90276355
-17.516186 18.528833 1.6708586 0.9028402
-17.475233 18.537966 1.6752888 0.90291655
-17.43437 18.54707 1.6797123 0.90299255
-17.393583 18.556156 1.6841301 0.90306824
-17.352865 18.565229 1.6885401 0.90314358
-17.312222 18.574282 1.6929442 0.90321863
-17.271666 18.583324 1.6973389 0.90329331
-17.231176 18.592344 1.7017293 0.90336776
-17.190777 18.601347 1.7061119 0.90344179
-17.150444 18.610336 1.7104838 0.90351552
-17.110176 18.619307 1.714856 0.90358901
-17.069994 18.628256 1.7192118 0.90366215
-17.029882 18.637184 1.7235715 0.90373498
-16.989843 18.646099 1.7279179 0.90380746
-16.949873 18.655003 1.7322593 0.90387964
-16.909975 18.663883 1.7365937 0.90395159
-16.870161 18.672743 1.7409221 0.90402317
-16.834398 18.68602 1.7456559 0.90407282
-16.802797 18.703861 1.7508188 0.90409994
-16.773754 18.724512 1.7562361 0.90411305
-16.761772 18.764198 1.7634465 0.90403336
-16.750526 18.804834 1.7707539 0.90394914
-16.750601 18.85828 1.7792704 0.90380275
-16.750683 18.911884 1.7878196 0.90365577
-16.750757 18.965654 1.7963939 0.90350819
-16.750835 19.019575 1.8049949 0.90336007
-16.750874 19.073627 1.8136204 0.90321147
-16.750883 19.127798 1.8222703 0.90306246
-16.750893 19.182123 1.8309464 0.90291286
-16.750898 19.236626 1.8396486 0.90276265
-16.750908 19.291285 1.8483794 0.90261179
-16.750914 19.346107 1.8571352 0.90246034
-16.750923 19.401096 1.8659221 0.90230829
-16.750933 19.456259 1.8747346 0.90215558
-16.750942 19.51158 1.8835731 0.90200227
-16.750942 19.56707 1.892444 0.90184832
-16.750957 19.622732 1.9013413 0.90169376
-16.750961 19.678566 1.9102647 0.90153855
-16.750971 19.734541 1.9192228 0.90138274
-16.75098 19.790737 1.9282091 0.90122622
-16.750986 19.84708 1.9372218 0.9010691
-16.75099 19.903593 1.9462636 0.90091139
-16.751011 19.960302 1.9553367 0.9007529
-16.751011 20.017178 1.964437 0.90059382
-16.75102 20.074247 1.9735692 0.90043402
-16.75103 20.131479 1.9827344 0.90027362
-16.75103 20.188873 1.9919233 0.90011263
-16.751045 20.246473 2.0011444 0.89995086
-16.751049 20.304268 2.0103984 0.89978838
-16.751064 20.362211 2.0196788 0.89962536
-16.751068 20.420353 2.0289912 0.89946157
-16.75108 20.478666 2.0383351 0.89929718
-16.751089 20.537191 2.0477164 0.89913201
-16.751093 20.595907 2.0571206 0.89896613
-16.751102 20.654799 2.0665593 0.89879966
-16.751118 20.713861 2.0760298 0.89863247
-16.751123 20.773146 2.0855353 0.8984645
-16.751127 20.832615 2.0950665 0.89829588
-16.751137 20.892269 2.104635 0.89812654
-16.751152 20.952108 2.1142328 0.89795655
-16.751162 21.012173 2.1238661 0.89778572
-16.751167 21.072422 2.1335328 0.89761424
-16.751177 21.13286 2.1432307 0.89744204
-16.751186 21.193495 2.1529622 0.89726913
-16.75119 21.254343 2.1627293 0.8970955
-16.751202 21.315407 2.1725252 0.89692104
-16.751211 21.376625 2.1823575 0.89674598
-16.751221 21.438063 2.1922247 0.89657015
-16.751225 21.499741 2.2021232 0.89639348
-16.751234 21.561598 2.2120605 0.89621609
-16.73184 21.598623 2.2194593 0.8961519
-16.683819 21.598637 2.2230492 0.89625585
-16.635874 21.598652 2.2266352 0.89635938
-16.588066 21.598667 2.2302122 0.89646244
-16.54039 21.59868 2.2337806 0.89656508
-16.492802 21.59869 2.2373438 0.8966673
-16.445322 21.598705 2.2408998 0.89676917
-16.397963 21.598721 2.2444518 0.89687049
-16.350708 21.59873 2.2479889 0.89697152
-16.30357 21.598745 2.2515295 0.89707208
-16.256552 21.598751 2.2550559 0.89717221
-16.209623 21.598772 2.2585769 0.89727193
-16.162802 21.59878 2.2620897 0.89737129
-16.116083 21.598799 2.2655942 0.89747018
-16.069496 21.598808 2.2691007 0.8975687
-16.022993 21.598818 2.2725906 0.89766681
-15.976625 21.598833 2.2760801 0.8977645
-15.930337 21.598845 2.2795618 0.89786184
-15.884155 21.59886 2.2830336 0.8979587
-15.838076 21.598869 2.2865009 0.89805526
-15.792119 21.598886 2.2899623 0.89815134
-15.74624 21.598896 2.2934151 0.89824706
-15.700473 21.598911 2.2968595 0.89834243
-15.654829 21.598921 2.3003027 0.89843732
-15.609262 21.598934 2.3037379 0.89853185
-15.563793 21.598942 2.3071604 0.89862609
-15.518437 21.598963 2.3105855 0.89871979
-15.473184 21.598969 2.3140061 0.89881319
-15.428018 21.598989 2.3174098 0.89890623
-15.382978 21.598993 2.3208113 0.8989988
-15.338002 21.599012 2.3242033 0.89909106
-15.293149 21.599024 2.327594 0.89918292
-15.248369 21.599035 2.3309803 0.89927447
-15.203706 21.599051 2.334358 0.89936554
-15.15913 21.599056 2.3377283 0.89945632
-15.114657 21.599072 2.3410902 0.89954668
-15.070273 21.599087 2.3444469 0.89963669
-15.025981 21.599096 2.3477998 0.89972633
-14.981801 21.599106 2.3511462 0.89981562
-14.937695 21.599121 2.3544872 0.89990449
-14.893696 21.599131 2.3578227 0.89999306
-14.84978 21.599146 2.3611505 0.90008122
-14.805962 21.599155 2.364471 0.90016907
-14.76224 21.599169 2.3677912 0.90025651
-14.718608 21.599178 2.3710999 0.9003436
-14.675058 21.599194 2.3744006 0.90043038
-14.631606 21.599209 2.3777022 0.90051675
-14.588257 21.599218 2.380996 0.90060276
-14.54498 21.599224 2.3842795 0.90068847
-14.501797 21.599237 2.3875606 0.90077382
-14.458715 21.599253 2.3908336 0.90085876
-14.415708 21.599262 2.3941054 0.90094346
-14.372787 21.599274 2.3973703 0.90102774
-14.32997 21.599289 2.4006264 0.90111166
-14.287216 21.599298 2.4038815 0.90119529
-14.244565 21.599312 2.4071271 0.90127856
-14.201997 21.599321 2.4103692 0.90136147
-14.159526 21.599331 2.4136033 0.90144402
-14.117124 21.59935 2.4168336 0.90152627
-14.074819 21.59936 2.4200578 0.90160817
-14.032582 21.599373 2.4232759 0.90168977
-13.990435 21.599382 2.4264903 0.90177101
-13.948388 21.599392 2.4296968 0.90185189
-13.906416 21.599403 2.4328995 0.90193248
-13.864531 21.599413 2.4360979 0.90201271
-13.82272 21.599428 2.4392922 0.90209264
-13.780981 21.599438 2.4424741 0.90217221
-13.73935 21.599453 2.4456565 0.90225142
-13.697788 21.599464 2.4488292 0.9023304
-13.656308 21.599474 2.452002 0.90240902
-13.614907 21.599489 2.4551668 0.90248728
-13.573588 21.599491 2.4583275 0.90256524
-13.532344 21.599506 2.4614811 0.90264291
-13.491161 21.599522 2.4646301 0.90272021
-13.450092 21.599531 2.4677739 0.90279722
-13.409101 21.599545 2.4709125 0.90287387
-13.368159 21.599552 2.4740427 0.90295029
-13.327324 21.599567 2.4771791 0.90302634
-13.286552 21.599577 2.4803007 0.9031021
-13.245864 21.59959 2.4834163 0.9031775
-13.205258 21.5996 2.4865336 0.9032526
-13.164701 21.599609 2.489641 0.90332752
-13.124243 21.599623 2.4927409 0.90340197
-13.083847 21.599634 2.4958403 0.90347618
-13.043545 21.599638 2.4989359 0.90355009
-13.003315 21.599653 2.5020227 0.90362364
-12.963135 21.599663 2.5051055 0.90369701
-12.923052 21.599672 2.5081835 0.90376997
-12.883032 21.599688 2.511256 0.90384263
-12.848716 21.609114 2.5154233 0.90387517
-12.84873 21.676449 2.5263383 0.90366298
-12.848735 21.744061 2.5372984 0.90344977
-12.848744 21.811972 2.5483046 0.90323544
-12.848755 21.88018 2.5593586 0.90302014
-12.848764 21.948704 2.5704656 0.90280366
-12.848774 22.01753 2.5816216 0.9025861
-12.848789 22.086664 2.5928349 0.90236747
-12.848794 22.156094 2.6040947 0.90214777
-12.848808 22.225859 2.6154046 0.90192693
-12.848813 22.295902 2.6267638 0.90170503
-12.848833 22.366302 2.6381786 0.90148193
-12.848838 22.436996 2.6496441 0.90125775
-12.848847 22.508026 2.6611645 0.90103239
-12.848857 22.579372 2.6727393 0.90080589
-12.848866 22.651052 2.6843669 0.9005782
-12.848882 22.723061 2.6960509 0.90034938
-12.848886 22.795401 2.707782 0.90011942
-12.848896 22.868073 2.7195764 0.89988822
-12.848911 22.941093 2.7314215 0.89965582
-12.848916 23.014435 2.7433269 0.89942229
-12.84893 23.088152 2.7552855 0.89918745
-12.84894 23.162191 2.7673039 0.89895141
-12.848949 23.236572 2.7793756 0.89871424
-12.84896 23.311325 2.7915051 0.89847571
-12.848969 23.386414 2.8036969 0.89823604
-12.848979 23.46187 2.8159418 0.89799505
-10.569228 19.361444 2.3264418 0.91509897
-10.535151 19.36145 2.3290749 0.91515726
-10.501127 19.36146 2.3317068 0.91521537
-10.467154 19.361464 2.3343351 0.91527325
-10.433251 19.361479 2.3369598 0.91533083
-10.399399 19.361488 2.3395796 0.91538817
-10.365601 19.361498 2.3421984 0.91544527
-10.331861 19.361507 2.3448071 0.91550213
-10.298183 19.361513 2.3474174 0.91555876
-10.264536 19.361532 2.3500221 0.91561514
-10.230976 19.361532 2.3526247 0.91567129
-10.197446 19.361542 2.3552213 0.9157272
-10.163984 19.361553 2.3578141 0.91578287
-10.130581 19.361563 2.3604064 0.9158383
-10.097231 19.361567 2.362994 0.9158935
-10.063921 19.361582 2.3655748 0.91594851
-10.030668 19.361591 2.3681571 0.91600323
-9.9974756 19.361599 2.3707306 0.91605771
-9.8732319 19.184587 2.3515968 0.91684616
-9.8404341 19.184599 2.3541548 0.91689974
-9.8077097 19.184608 2.3566916 0.91695309
-9.7801313 19.194637 2.3604603 0.91696471
-9.7801361 19.258982 2.370914 0.91675144
-9.7409372 19.246147 2.3718715 0.91685742
-9.7012157 19.232101 2.3726735 0.91696811
-9.6616116 19.218096 2.3734698 0.91707832
-9.6221333 19.204136 2.3742704 0.91718811
-9.5827684 19.19021 2.3750608 0.91729742
-9.5435104 19.176331 2.3758559 0.91740626
-9.5043793 19.162489 2.3766472 0.91751468
-9.4653664 19.148699 2.3774407 0.91762257
-9.4264698 19.134945 2.3782244 0.91773003
-9.3862057 19.11825 2.3786337 0.91784936
-9.3444042 19.098091 2.3786104 0.91798258
-9.3026953 19.078016 2.3785877 0.9181152
-9.2611666 19.058008 2.3785655 0.91824722
-9.2197895 19.038071 2.3785429 0.91837859
-9.1844673 19.030464 2.3800533 0.91845912
-9.1528902 19.030474 2.3825121 0.91850811
-9.1213427 19.030487 2.3849661 0.91855693
-9.0898628 19.030491 2.3874183 0.91860551
-9.058423 19.0305 2.3898697 0.91865385
-9.0270262 19.03051 2.3923149 0.91870201
-8.9956684 19.030518 2.3947556 0.91874999
-8.9643698 19.030527 2.3971994 0.91879767
-8.9331102 19.030537 2.399631 0.91884524
-8.9018993 19.030546 2.4020655 0.91889256
-8.8707228 19.030552 2.4044929 0.91893971
-8.8396091 19.030561 2.4069197 0.91898656
-8.8085346 19.030571 2.4093449 0.91903323
-8.7774897 19.030579 2.4117622 0.91907978
-8.7465086 19.03059 2.4141798 0.91912603
-8.7155609 19.0306 2.4165916 0.91917211
-8.6846628 19.030605 2.4190016 0.919218
-8.6538134 19.030609 2.4214129 0.91926366
-8.6229925 19.03063 2.4238148 0.91930914
-8.5922213 19.030634 2.4262168 0.91935444
-8.562417 19.032684 2.4288762 0.91939121
-8.5355368 19.041151 2.4323502 0.91940171
-8.5086517 19.049623 2.4358256 0.91941214
-8.4817963 19.05809 2.4392982 0.91942233
-8.4549408 19.066553 2.4427693 0.9194324
-8.4281006 19.075008 2.4462404 0.91944236
-8.4009523 19.082724 2.4496162 0.91945517
-8.373662 19.090082 2.4529428 0.91946924
-8.3463869 19.097422 2.4562683 0.91948318
-8.3191261 19.104761 2.459589 0.91949701
-8.2918844 19.112095 2.4629102 0.91951066
-8.2646532 19.119429 2.4662302 0.91952419
-8.2374458 19.126753 2.4695466 0.91953754
-8.2102489 19.134081 2.4728627 0.91955078
-8.1830759 19.141396 2.4761777 0.91956383
-8.2467966 19.36208 2.5071175 0.91871804
-8.2162056 19.362095 2.509511 0.91876066
-8.1856594 19.362104 2.5118957 0.91880304
-8.1551514 19.362114 2.5142815 0.91884524
-8.124692 19.362123 2.5166614 0.91888726
-8.0942726 19.362129 2.5190415 0.9189291
-8.0638866 19.362133 2.5214162 0.91897076
-8.0335445 19.362133 2.5237889 0.91901219
-8.0032368 19.362152 2.5261607 0.91905344
-7.9729638 19.362164 2.5285249 0.9190945
-7.9427438 19.362167 2.5308886 0.91913539
-7.9125485 19.362177 2.5332506 0.91917604
-7.882412 19.362186 2.5356097 0.91921651
-7.8522997 19.362192 2.5379627 0.91925687
-7.8222213 19.362202 2.5403159 0.91929692
-7.792192 19.362211 2.5426669 0.91933686
-7.7621922 19.362217 2.5450127 0.91937661
-7.7322364 19.362226 2.5473564 0.91941619
-7.7023096 19.362236 2.5496986 0.91945553
-7.6724362 19.362236 2.5520375 0.91949475
-7.6425781 19.362255 2.5543714 0.91953373
-7.6127734 19.362261 2.5567024 0.91957253
-7.582993 19.36227 2.5590348 0.91961116
-7.5532565 19.36228 2.5613599 0.9196496
-7.5235596 19.362286 2.5636852 0.91968787
-7.4938912 19.362295 2.5660057 0.91972595
-7.4642529 19.362309 2.5683281 0.91976386
-7.4346628 19.362314 2.5706432 0.91980159
-7.405117 19.362324 2.5729547 0.91983914
-7.3756003 19.362324 2.5752635 0.91987652
-7.3461132 19.362339 2.577575 0.91991365
-7.3166552 19.362339 2.5798779 0.91995072
-7.2872362 19.362352 2.5821807 0.9199875
-7.2578564 19.362362 2.5844798 0.92002416
-7.2285204 19.362368 2.5867767 0.92006063
-7.199204 19.362373 2.5890722 0.92009693
-7.1699266 19.362383 2.5913641 0.92013305
-7.1406784 19.362392 2.593653 0.920169
-7.1114745 19.362396 2.595938 0.92020476
-7.0822949 19.362411 2.5982225 0.92024034
-7.0531492 19.362421 2.6005023 0.92027575
-7.0240479 19.362431 2.6027832 0.92031097
-6.9949756 19.362431 2.605058 0.92034608
-6.9659324 19.36244 2.6073315 0.92038095
-6.936914 19.362452 2.6096051 0.9204157
-6.9079394 19.362461 2.6118689 0.92045021
-6.8789988 19.362465 2.6141338 0.9204846
-6.8500977 19.362474 2.6163976 0.92051882
-6.8212109 19.36248 2.6186609 0.92055285
-6.7923679 19.362484 2.6209166 0.92058671
-6.7635593 19.362495 2.6231701 0.92062038
-6.7347703 19.362509 2.6254241 0.92065394
-6.7060108 19.362514 2.6276751 0.92068726
-6.6772995 19.362514 2.62992 0.92072052
-6.6486082 19.36253 2.6321661 0.92075348
-6.6199656 19.362534 2.6344104 0.92078632
-6.5913329 19.362539 2.6366472 0.92081904
-6.5627294 19.362553 2.6388848 0.92085153
-6.5341649 19.362562 2.64112 0.92088389
-6.5056295 19.362574 2.6433551 0.92091608
-6.4771338 19.362577 2.6455829 0.92094809
-6.4486523 19.362583 2.6478088 0.92097998
-6.4202051 19.362593 2.6500342 0.92101163
-6.3917966 19.362602 2.6522593 0.92104316
-6.3634176 19.362606 2.6544781 0.92107451
-6.3350587 19.362617 2.6566968 0.92110568
-6.3067284 19.362627 2.6589136 0.92113674
-6.2784472 19.362631 2.6611266 0.92116761
-6.2501707 19.362637 2.6633344 0.92119831
-6.2219381 19.362646 2.6655443 0.92122883
-6.1937256 19.362656 2.6677489 0.92125922
-6.1655517 19.362665 2.6699524 0.92128944
-6.1374073 19.362665 2.6721532 0.92131954
-6.109282 19.362675 2.67435 0.92134941
-6.0811768 19.36269 2.6765473 0.92137915
-6.0531201 19.36269 2.6787415 0.92140871
-6.0250831 19.3627 2.6809332 0.92143816
-5.9970651 19.362709 2.68312 0.92146742
-5.9690866 19.362719 2.6853087 0.92149651
-5.9411378 19.362724 2.6874933 0.92152542
-5.913208 19.362734 2.6896727 0.92155421
-5.8853173 19.362743 2.6918492 0.92158282
-5.8574462 19.362743 2.6940284 0.92161131
-5.8295946 19.362753 2.6962035 0.92163962
-5.8017578 19.362762 2.6983764 0.92166781
-5.7739744 19.362774 2.7005463 0.92169577
-5.7462106 19.362778 2.7027147 0.92172366
-5.7184863 19.362787 2.7048779 0.92175132
-5.690752 19.362793 2.7070427 0.92177886
-5.6630859 19.362797 2.7092035 0.92180628
-5.6354198 19.362812 2.7113636 0.92183346
-5.6077685 19.362822 2.7135198 0.92186052
-5.5801706 19.362822 2.7156737 0.92188746
-5.5525732 19.362831 2.717824 0.92191422
-5.5250244 19.362841 2.7199755 0.9219408
-5.4974952 19.362841 2.7221234 0.92196733
-5.469985 19.362856 2.7242663 0.92199361
-5.4424949 19.362871 2.7264099 0.92201972
-5.4150438 19.362875 2.7285509 0.92204577
-5.1915135 18.658129 2.6313007 0.92479849
-5.1651611 18.65831 2.6333849 0.92482263
-5.1388135 18.658501 2.635468 0.92484665
-5.1124949 18.658672 2.6375444 0.92487055
-5.0861912 18.658873 2.6396227 0.92489421
-5.0599318 18.659048 2.6416967 0.92491782
-5.0336866 18.659239 2.6437695 0.92494118
-5.0074511 18.659414 2.6458385 0.92496455
-4.9812546 18.659594 2.6479101 0.92498767
-4.9550734 18.659775 2.6499755 0.92501068
-4.9289207 18.659956 2.6520391 0.92503357
-4.9027781 18.660147 2.654104 0.92505628
-4.8766551 18.660332 2.6561627 0.92507887
-4.8505712 18.660513 2.658222 0.92510128
-4.824492 18.660688 2.66028 0.92512363
-4.7984424 18.660873 2.6623321 0.92514575
-4.7724171 18.661049 2.6643865 0.9251678
-4.7464108 18.661236 2.6664336 0.92518961
-4.7204151 18.661421 2.6684825 0.92521137
-4.694448 18.661606 2.6705298 0.92523295
-4.6685057 18.661781 2.6725757 0.9252544
-4.6425734 18.661963 2.6746154 0.92527574
-4.6166749 18.662144 2.6766565 0.9252969
-4.5907907 18.662319 2.6786907 0.925318
-4.5649266 18.6625 2.6807268 0.92533886
-4.5390821 18.662685 2.6827636 0.92535967
-4.5132618 18.662867 2.6847937 0.92538029
-4.4874606 18.663046 2.6868279 0.92540073
-4.4616747 18.663221 2.6888561 0.92542112
-4.4359083 18.663403 2.6908793 0.92544132
-4.410171 18.663578 2.692904 0.92546141
-4.3844333 18.663759 2.6949267 0.92548138
-4.3587255 18.663944 2.6969464 0.92550117
-4.3330417 18.664116 2.6989679 0.9255209
-4.307373 18.664297 2.7009826 0.92554039
-4.2817235 18.664473 2.7029955 0.92555982
-4.2560987 18.664648 2.7050085 0.92557907
-4.2304835 18.664833 2.7070191 0.9255982
