# .PCD v0.7 - Point Cloud Data file format
VERSION 0.7
FIELDS x y z intensity
SIZE 4 4 4 4
TYPE F F F F
COUNT 1 1 1 1
WIDTH 1144
HEIGHT 1
VIEWPOINT 0 0 0 1 0 0 0
POINTS 1144
DATA ascii
-2.7650926 20.167841 3.4501317 0.92073107
-2.7382519 20.161938 3.4473674 0.92076719
-2.7114501 20.15605 3.4446087 0.92080313
-2.6846533 20.15015 3.4418437 0.92083895
-2.6578662 20.144257 3.4390862 0.92087466
-2.6311231 20.138359 3.4363225 0.92091024
-2.6043994 20.132446 3.433557 0.92094576
-2.5776758 20.126553 3.4307971 0.92098111
-2.5509813 20.120659 3.4280334 0.92101628
-2.5243456 20.11475 3.425271 0.92105138
-2.4977002 20.108847 3.4225066 0.92108637
-2.4710791 20.102953 3.4197459 0.92112118
-2.4444678 20.097046 3.4169805 0.92115587
-2.4179053 20.091162 3.4142222 0.92119038
-2.3913574 20.085243 3.4114556 0.92122489
-2.3648193 20.079355 3.408695 0.92125916
-2.3383057 20.073442 3.4059269 0.92129344
-2.3118165 20.067543 3.4031627 0.92132747
-2.2853222 20.06164 3.4003978 0.92136145
-2.2588916 20.055737 3.3976355 0.9213953
-2.2324708 20.049829 3.3948705 0.92142898
-2.2060547 20.043936 3.3921106 0.92146254
-2.1796727 20.038027 3.3893437 0.92149603
-2.1533008 20.032129 3.3865788 0.92152929
-2.1269629 20.026215 3.3838141 0.92156255
-2.10062 20.020311 3.3810472 0.92159563
-2.0743213 20.014404 3.3782823 0.92162859
-2.0480273 20.008511 3.3755176 0.92166144
-2.0217626 20.002602 3.372752 0.92169416
-1.9955322 19.996698 3.3699901 0.9217267
-1.9692919 19.990795 3.3672228 0.92175919
-1.9431006 19.984888 3.3644578 0.92179149
-1.9168944 19.97897 3.3616862 0.9218238
-1.8907275 19.973066 3.3589189 0.92185587
-1.8839599 20.174736 3.3910456 0.92110872
-2.2076905 23.970287 4.0268879 0.90698898
-2.1772509 23.973339 4.0252666 0.90698904
-2.1468213 23.976397 4.0236464 0.90698886
-2.1163819 23.979452 4.022027 0.90698862
-2.0859375 23.98251 4.020402 0.9069882
-2.0554931 23.985571 4.0187788 0.90698761
-2.0250342 23.988642 4.0171485 0.90698683
-1.9945898 23.991709 4.0155225 0.906986
-1.9641356 23.99478 4.0138922 0.90698498
-1.9336718 23.99785 4.0122614 0.90698379
-1.903208 24.000927 4.0106311 0.90698248
-1.872749 24.004013 4.0089946 0.90698099
-0.61131835 39.639339 6.4433541 0.85158408
-0.55865234 39.49453 6.4161587 0.85208851
-0.50631344 39.350655 6.3891296 0.85258979
-0.45440918 39.207939 6.3623114 0.85308713
-0.34305662 37.975269 6.1552253 0.85736668
-0.29437989 37.955242 6.1484504 0.85743958
-0.2457373 37.935223 6.1416688 0.85751224
-0.19714355 37.915222 6.1348987 0.85758466
-0.14861816 37.895271 6.1281328 0.85765666
-0.10012695 37.875313 6.1213651 0.85772848
-0.051655274 37.855377 6.1146064 0.85780001
-0.0032470701 37.835461 6.1078582 0.85787129
0.045102537 37.815575 6.1011009 0.85794228
0.093417965 37.795696 6.0943604 0.85801303
0.14169921 37.775833 6.0876193 0.85808349
0.18989746 37.756012 6.0808825 0.85815364
0.23809081 37.736195 6.0741477 0.85822356
0.2862207 37.716412 6.0674143 0.85829312
0.33430174 37.69664 6.0606909 0.8583625
0.38235351 37.676884 6.0539737 0.85843152
0.43034178 37.65715 6.0472569 0.85850036
0.47831541 37.637421 6.0405436 0.85856897
0.52622557 37.617744 6.0338373 0.85863715
0.57407224 37.598072 6.0271325 0.85870516
0.62189943 37.578407 6.0204358 0.85877287
0.66968262 37.558765 6.0137391 0.85884035
0.71742672 37.53915 6.0070419 0.85890752
0.76511717 37.519547 6.0003576 0.85897446
0.81279784 37.499969 5.9936724 0.85904109
0.8603906 37.480404 5.986989 0.85910743
0.90797848 37.460857 5.9803162 0.8591736
0.95548338 37.441334 5.9736481 0.85923946
1.0029931 37.421818 5.9669743 0.85930502
1.0504248 37.40234 5.9603124 0.85937035
1.0978564 37.382854 5.953649 0.85943544
1.1452001 37.363411 5.9469957 0.85950017
1.1925342 37.343975 5.94034 0.85956472
1.2398388 37.324547 5.9336929 0.85962903
1.2870654 37.305153 5.9270463 0.85969299
1.3342822 37.285763 5.9204011 0.85975677
1.38146 37.266392 5.9137626 0.85982025
1.4285791 37.247055 5.9071331 0.85988343
1.4756787 37.227711 5.9004993 0.85994643
1.5227002 37.208412 5.8938751 0.86000907
1.5675634 37.137608 5.8790922 0.86025113
1.6108007 37.034115 5.8591561 0.86060703
1.6636474 37.150555 5.8740129 0.8601957
1.710542 37.13131 5.8673997 0.86025733
1.7460107 36.871647 5.8228192 0.86115772
1.7944287 36.891842 5.8224521 0.86108136
1.8755713 37.565697 5.9251828 0.85872602
1.9242578 37.572083 5.9225678 0.85869747
1.9729736 37.578465 5.9199486 0.85866868
2.0217431 37.58485 5.9173217 0.85863966
2.0689549 37.562832 5.9102263 0.85870934
1.9388379 34.395767 5.4085827 0.86980224
1.9842383 34.413891 5.4080973 0.86973143
2.0296679 34.432026 5.4076133 0.86966038
2.0751708 34.450184 5.407124 0.86958909
2.1207471 34.468376 5.4066324 0.86951739
2.1663623 34.48658 5.4061351 0.8694455
2.2120507 34.504814 5.405642 0.86937332
2.2578075 34.523083 5.4051466 0.86930078
2.3036084 34.541367 5.404644 0.86922801
2.3494971 34.559689 5.4041405 0.86915487
2.3954444 34.578026 5.4036388 0.8690815
2.4414208 34.59639 5.4031239 0.86900789
2.4874949 34.614769 5.402616 0.86893392
2.533623 34.63319 5.4021049 0.86885965
2.5797949 34.651627 5.4015894 0.86878508
2.6260448 34.670094 5.4010739 0.86871028
2.6723583 34.688591 5.4005527 0.86863512
2.7187548 34.707108 5.400032 0.86855966
2.7651708 34.725651 5.3995099 0.8684839
2.8116846 34.744217 5.3989806 0.86840791
2.8582714 34.762817 5.3984513 0.86833155
2.904917 34.781448 5.3979239 0.86825484
2.9516063 34.800083 5.3973899 0.86817795
2.9983838 34.818771 5.3968534 0.8681007
3.0452197 34.837471 5.3963175 0.86802316
3.092119 34.856209 5.3957748 0.86794525
3.1391211 34.874973 5.3952332 0.86786705
3.1861522 34.893761 5.3946891 0.86778861
3.233247 34.912563 5.3941417 0.86770988
3.2804198 34.931412 5.3935914 0.86763078
3.3276708 34.950287 5.3930411 0.86755133
3.3749707 34.969181 5.3924832 0.86747164
3.4223583 34.988106 5.3919272 0.86739165
3.4698291 35.007069 5.391376 0.86731124
3.517329 35.026043 5.3908081 0.86723065
3.5072167 34.477589 5.3029642 0.86915344
3.555542 34.510372 5.3045697 0.86902362
3.6039989 34.543243 5.3061738 0.86889327
3.7081299 35.102268 5.3885455 0.8669048
3.7560155 35.121399 5.38797 0.86682254
3.7154295 34.322842 5.2620292 0.86962926
3.8519676 35.159733 5.3868151 0.86665714
3.9000585 35.178951 5.3862338 0.86657393
3.9482274 35.198196 5.3856583 0.86649036
3.9964697 35.217468 5.3850698 0.86640656
4.0447702 35.236771 5.384481 0.8663224
4.0931787 35.256111 5.3838968 0.86623782
4.1416259 35.275478 5.3832994 0.866153
4.1901708 35.294868 5.3827119 0.86606783
4.2387791 35.314297 5.3821125 0.86598235
4.287456 35.333748 5.3815145 0.86589658
4.336206 35.35323 5.3809114 0.86581045
4.5739255 36.896519 5.6120825 0.8603633
4.8013425 38.324818 5.8254509 0.85534966
4.8533692 38.337914 5.8235617 0.85528463
4.9054542 38.351013 5.8216681 0.85521942
4.9575634 38.364113 5.8197699 0.85515398
5.0097704 38.377247 5.8178701 0.85508811
5.0620508 38.390392 5.8159628 0.85502201
7.0636911 37.887074 5.5790043 0.85575891
7.0972996 37.794083 5.5613284 0.85605633
7.1307664 37.70153 5.5437284 0.85635227
7.1640868 37.609337 5.5261984 0.8566469
7.1972604 37.51754 5.5087452 0.85694015
7.1080222 36.793152 5.3984928 0.85946834
7.2631931 37.335136 5.4740586 0.85752249
7.1974168 36.741516 5.3831263 0.85959029
7.2441306 36.726166 5.376977 0.8596139
7.2908492 36.710823 5.370831 0.8596372
7.3375535 36.69548 5.3646874 0.85966039
7.384233 36.680141 5.3585453 0.85968333
7.4576902 36.796917 5.3716846 0.85923785
7.4896436 36.708534 5.354867 0.85951912
7.5214791 36.620449 5.3381076 0.85979933
7.3683739 35.639141 5.191258 0.86325508
7.4143896 35.627022 5.1856818 0.86326641
7.4603662 35.61491 5.180109 0.86327755
7.506372 35.602798 5.1745334 0.8632884
7.5523825 35.590672 5.1689582 0.86329913
7.5983739 35.578568 5.1633778 0.86330956
7.6443648 35.566463 5.1578002 0.86331981
7.6903563 35.554348 5.1522245 0.86332989
7.736372 35.542252 5.1466393 0.86333966
7.7823486 35.530125 5.1410632 0.86334932
7.8283834 35.518005 5.135479 0.86335868
7.8743992 35.505909 5.1298943 0.8633678
7.9203954 35.493793 5.1243091 0.8633768
7.9664207 35.481678 5.1187253 0.8633855
8.0124264 35.469559 5.1131363 0.86339408
8.0584469 35.457455 5.1075501 0.86340237
8.1044674 35.445347 5.1019621 0.86341041
8.1505175 35.433228 5.0963721 0.86341828
8.196557 35.421116 5.0907788 0.86342597
8.2425833 35.409004 5.0851831 0.86343342
8.2886086 35.396889 5.0795908 0.86344063
8.3346624 35.384773 5.0739985 0.86344761
8.3806982 35.37265 5.0684018 0.86345446
8.426548 35.359642 5.0626707 0.86346424
8.4728222 35.348415 5.0572028 0.8634674
8.5188818 35.336292 5.0516052 0.86347353
8.4809713 34.977875 4.9965343 0.86472291
8.5381489 35.013309 4.997756 0.8645581
8.5955124 35.048855 4.9989843 0.86439258
8.653017 35.084488 5.0002136 0.86422646
8.7107029 35.120258 5.0014544 0.86405957
8.7685452 35.156078 5.0026789 0.8638922
8.8265381 35.192017 5.0039172 0.86372411
8.8847456 35.228088 5.0051641 0.86355519
8.933672 35.227188 5.0011487 0.86351907
8.9798098 35.215057 4.9955359 0.86352301
9.0259132 35.202942 4.9899163 0.86352676
9.0720654 35.190792 4.9843082 0.86353028
9.1182127 35.178673 4.9786859 0.86353356
9.1643648 35.166527 4.9730663 0.86353672
9.2105026 35.1544 4.9674468 0.86353958
8.7571726 33.245953 4.6940818 0.87040579
8.8094387 33.26688 4.6933336 0.87029034
8.8618116 33.287846 4.6925864 0.87017441
8.9143114 33.308865 4.6918359 0.87005806
8.9668703 33.32991 4.6910739 0.86994135
9.0195847 33.351006 4.6903214 0.86982417
9.0724173 33.372162 4.6895595 0.86970645
9.1253662 33.393353 4.6888046 0.86958832
9.1784229 33.414593 4.6880383 0.86946976
9.2315769 33.435879 4.6872764 0.86935073
9.2848577 33.457203 4.6865077 0.86923134
9.3382273 33.478573 4.6857352 0.86911148
9.3917522 33.499996 4.684967 0.86899108
9.4453955 33.521469 4.6841979 0.8688702
9.4991159 33.542984 4.6834168 0.86874896
9.5530224 33.56456 4.6826429 0.86862713
9.606987 33.586166 4.6818638 0.86850494
9.6610889 33.607822 4.6810837 0.86838228
9.7060003 33.597225 4.6758018 0.86837697
9.7490578 33.580349 4.6696458 0.86839437
9.7921429 33.563473 4.6634889 0.86841154
9.8352289 33.5466 4.6573353 0.86842853
9.8783007 33.529724 4.6511803 0.86844528
9.9213715 33.512852 4.6450267 0.86846179
9.9644184 33.495995 4.6388698 0.86847806
10.007514 33.479111 4.6327176 0.86849421
10.050571 33.46225 4.6265612 0.86851007
10.093647 33.445374 4.6204104 0.86852574
10.136694 33.428516 4.6142516 0.86854118
10.179775 33.411644 4.608098 0.86855644
10.222827 33.394783 4.6019416 0.86857146
10.265879 33.377914 4.595787 0.8685863
10.30895 33.36105 4.5896325 0.8686009
10.351996 33.344193 4.583477 0.86861527
10.395048 33.327328 4.5773225 0.86862946
10.438106 33.310463 4.5711637 0.86864346
10.481157 33.293602 4.5650053 0.86865723
10.524214 33.276737 4.5588551 0.86867076
10.56727 33.259884 4.5526972 0.86868405
10.610327 33.243004 4.5465412 0.86869723
10.653394 33.226147 4.5403819 0.8687101
10.69643 33.209297 4.5342236 0.86872274
10.739502 33.192421 4.5280714 0.86873525
10.782554 33.175564 4.5219102 0.86874747
10.82561 33.158695 4.5157557 0.86875957
10.868676 33.141834 4.509594 0.86877137
10.911734 33.124973 4.5034361 0.868783
10.954785 33.108116 4.4972754 0.86879438
10.997851 33.09124 4.4911203 0.86880559
11.040933 33.074375 4.484961 0.86881655
11.083999 33.057518 4.4787993 0.86882728
11.127075 33.040646 4.4726391 0.86883783
11.170132 33.023788 4.466476 0.86884815
11.213218 33.00692 4.4603152 0.86885828
11.256284 32.99004 4.454155 0.86886823
11.299356 32.973179 4.4479918 0.86887789
11.342431 32.956314 4.4418297 0.86888736
11.385532 32.939423 4.4356675 0.86889666
57.112785 55.171391 4.5107236 0.72749573
57.147923 55.04784 4.4887366 0.72767514
57.182964 54.924549 4.4667864 0.72785372
57.217983 54.801365 4.4448724 0.72803175
56.813519 54.258636 4.3890295 0.72998405
57.044449 54.323696 4.3824005 0.72936726
57.276829 54.389175 4.3757977 0.72874659
57.354546 54.307293 4.3572855 0.72874939
57.384914 54.180767 4.3352008 0.72894174
57.427162 54.065567 4.3140478 0.72908574
57.494095 53.973724 4.2947516 0.72912997
57.614407 53.931877 4.2794414 0.72896016
57.535267 53.703491 4.2493601 0.72958755
57.855774 53.848015 4.2487493 0.72861797
57.976753 53.805996 4.2333879 0.72844571
58.046917 53.716621 4.2142749 0.72847569
58.219349 53.72168 4.2025471 0.72809911
58.341011 53.679424 4.1871181 0.72792459
58.462837 53.637077 4.1716461 0.72774941
58.584934 53.594658 4.1561604 0.72757339
58.707142 53.552185 4.1406512 0.72739679
58.829681 53.509624 4.1251273 0.72721922
58.968273 52.867729 4.0146208 0.72818726
59.049797 52.788158 3.9962785 0.72816765
59.6073 53.132725 4.0099339 0.72629076
59.522884 52.904301 3.9803228 0.72691894
59.443089 52.680725 3.9510901 0.72752774
59.506847 52.584702 3.9314909 0.72757673
59.57058 52.488743 3.9119098 0.72762519
59.6343 52.392792 3.8923132 0.72767317
59.698021 52.296864 3.872746 0.72772062
59.76173 52.20092 3.853178 0.72776765
59.705765 52.000774 3.8259399 0.72827679
59.575912 51.737152 3.7941132 0.72907019
59.446869 51.475204 3.7624876 0.72985893
60.016479 51.817421 3.7749743 0.72795045
59.920151 51.583813 3.7454369 0.72861075
60.132084 51.615673 3.7351978 0.72808403
60.189007 51.514107 3.7152789 0.72815329
60.245892 51.412605 3.6953599 0.72822201
58.047241 42.157017 2.4164805 0.75041819
58.052795 42.031754 2.3967893 0.75062728
57.516224 41.515404 2.3549407 0.75284743
57.716801 41.532036 2.3434296 0.75232971
57.918236 41.548756 2.3318686 0.75180972
58.074898 41.532707 2.3184047 0.75145638
58.080402 41.408489 2.2989008 0.75166172
58.085911 41.284439 2.2794297 0.75186628
58.091381 41.160599 2.2599909 0.75207025
58.09687 41.036968 2.2406092 0.75227332
58.102337 40.913589 2.2212584 0.75247562
58.107796 40.790318 2.2019334 0.75267732
58.659817 41.049797 2.2031693 0.75087082
59.066311 41.205559 2.1986561 0.74960417
59.153088 41.137436 2.1821392 0.74950898
59.234341 41.065414 2.1653929 0.74943358
59.636547 41.214993 2.1602483 0.74818903
59.713921 41.13929 2.1432343 0.74812865
59.37352 40.776566 2.1113219 0.7495867
59.868889 40.98774 2.1091576 0.74800622
59.564281 40.650982 2.0787663 0.74933046
59.525715 40.496819 2.0578032 0.74968791
59.602261 40.421116 2.0408714 0.74962705
60.060081 40.603043 2.036828 0.74818683
60.290474 40.629974 2.0249195 0.74757171
57.993217 38.958118 1.9288126 0.75611514
58.260483 39.013645 1.9186982 0.75535178
58.530285 39.069897 1.908534 0.75458115
58.228645 38.744995 1.8797843 0.7558856
58.230968 38.623245 1.8609849 0.75608492
58.103683 38.415943 1.8381206 0.75675398
57.873138 38.141342 1.8121275 0.7577967
57.840191 37.997669 1.7924644 0.75812107
57.807407 37.854515 1.7728511 0.75844377
57.774693 37.7118 1.7532929 0.75876522
57.633705 37.498928 1.7305448 0.75947833
57.561771 37.331627 1.7099742 0.75994003
57.677044 37.285835 1.6949828 0.75972277
57.924477 37.324936 1.6838002 0.75902796
58.021721 37.266762 1.668177 0.75887638
58.119125 37.208462 1.652523 0.75872421
58.210041 37.145844 1.6366673 0.75859529
58.283772 37.072083 1.6203071 0.75852805
58.311371 36.968979 1.602671 0.75862628
58.25172 36.810825 1.5826854 0.75903732
58.505276 36.850414 1.5711778 0.75832343
58.579262 36.776402 1.5547737 0.75825411
58.653324 36.702259 1.5383613 0.75818431
58.727386 36.62817 1.5219508 0.75811398
58.801594 36.553871 1.5055156 0.75804317
59.084927 36.609154 1.4943534 0.75722617
59.08725 36.489895 1.4760399 0.75741136
59.089535 36.370785 1.4577525 0.75759602
59.09185 36.251881 1.4395088 0.75777984
60.565952 37.0331 1.4566814 0.7527495
60.561253 36.907288 1.4378691 0.75296015
60.556545 36.781734 1.4190907 0.75316989
60.55183 36.656334 1.4003571 0.75337905
64.554779 38.949173 1.4731096 0.73960704
64.576263 38.831898 1.4538084 0.73973268
64.597725 38.714672 1.4345229 0.73985785
64.619164 38.597542 1.4152712 0.73998243
64.640602 38.480572 1.3960261 0.74010634
64.661964 38.363686 1.3768052 0.74022979
11.68437 6.9088917 0.24523894 0.94714278
11.671421 6.8779049 0.24142654 0.94724494
11.673642 6.8559322 0.23789077 0.94728017
11.681342 6.8371582 0.2345909 0.9472912
11.696748 6.8229151 0.23134491 0.94726819
11.720005 6.8131833 0.22827621 0.94721085
65.234718 37.793499 1.2509843 0.73962754
65.344543 37.727669 1.2334883 0.73944467
65.251236 37.544712 1.2121732 0.73995513
65.165039 37.36644 1.1910719 0.74044031
65.588585 37.479946 1.1792344 0.73918635
65.648743 37.385063 1.1607481 0.73917174
65.377106 37.10178 1.1364851 0.74028563
65.580482 37.088463 1.1205363 0.73978204
65.54644 36.940659 1.1005164 0.74008572
65.932861 37.02935 1.0874803 0.73896152
65.871223 36.865932 1.0669997 0.73935759
65.809799 36.70311 1.0465831 0.73975194
66.352318 36.876312 1.0356644 0.7381025
66.435349 36.79311 1.0174241 0.73800802
66.518433 36.709866 0.99915326 0.73791301
60.565647 33.307045 0.89199108 0.75843173
68.144722 37.342922 0.98367137 0.73282504
68.257217 37.272427 0.96535444 0.73263562
69.06414 37.579525 0.95661479 0.73013341
68.866577 37.339077 0.93381089 0.73097682
59.875736 25.792309 -0.18742415 0.77045053
59.933754 25.709936 -0.20356934 0.77038634
59.991867 25.627455 -0.21972534 0.77032161
55.510246 21.649937 -0.5092262 0.7879349
55.510227 21.552738 -0.5236026 0.78804564
55.510208 21.455658 -0.53795654 0.78815585
55.51017 21.358656 -0.55230939 0.78826559
55.510151 21.261772 -0.56662554 0.78837472
55.51012 21.164946 -0.58092541 0.78848338
55.510113 21.068218 -0.59522355 0.78859138
55.510082 20.971548 -0.60950166 0.78869903
55.510063 20.875004 -0.62375534 0.78880602
55.510044 20.778511 -0.63799697 0.78891259
55.510014 20.682163 -0.6522249 0.78901857
55.509995 20.585884 -0.6664378 0.78912401
55.509964 20.489672 -0.6806199 0.78922892
55.509926 20.393539 -0.69480437 0.7893334
55.509907 20.297514 -0.70895773 0.78943723
55.509888 20.201567 -0.72310972 0.78954059
55.509869 20.105707 -0.737243 0.78964341
55.509838 20.009926 -0.75136358 0.78974575
55.5098 19.914232 -0.76546979 0.78984761
55.5098 19.818628 -0.77954191 0.78994882
55.509758 19.72311 -0.7936213 0.79004961
55.509739 19.627642 -0.80766249 0.79014981
55.50972 19.53227 -0.8217113 0.79024953
55.509701 19.436996 -0.83573031 0.79034871
55.50967 19.341791 -0.84974074 0.79044741
55.509651 19.246674 -0.86373603 0.79054558
55.509624 19.151606 -0.87772536 0.79064322
55.509613 19.056635 -0.89168775 0.79074037
55.509575 18.961761 -0.90564483 0.79083699
55.509556 18.866968 -0.91958272 0.79093307
55.509514 18.772221 -0.93349576 0.79102874
55.509495 18.677544 -0.94740492 0.79112387
55.509476 18.582964 -0.96130425 0.7912184
55.509468 18.488441 -0.97518653 0.79131246
55.509426 18.394028 -0.98905736 0.79140604
55.509399 18.299652 -1.0028955 0.79149914
55.509369 18.205326 -1.0167438 0.79159176
55.509369 18.111176 -1.0305595 0.79168367
55.509319 18.017006 -1.0443927 0.79177529
55.509312 17.922974 -1.0581911 0.79186624
55.50927 17.828939 -1.0719696 0.79195684
55.509251 17.735033 -1.0857339 0.79204684
55.509232 17.641186 -1.0995023 0.79213637
55.509224 17.547377 -1.1132535 0.79222536
55.509174 17.453667 -1.1269883 0.79231393
55.509174 17.360064 -1.1406983 0.79240185
55.509155 17.26646 -1.154412 0.79248935
55.509113 17.172934 -1.1680907 0.79257643
55.509094 17.079487 -1.1817867 0.79266298
55.509075 16.986109 -1.1954556 0.79274899
55.509037 16.892788 -1.2091209 0.79283458
55.509018 16.799555 -1.2227626 0.79291958
55.508999 16.70643 -1.2364012 0.79300404
55.508987 16.613316 -1.2500092 0.79308802
55.508949 16.52022 -1.2636212 0.79317164
55.50893 16.42724 -1.2772236 0.79325467
55.508892 16.334311 -1.2908009 0.79333729
55.508881 16.24148 -1.3043709 0.79341924
55.50885 16.148685 -1.3179361 0.79350084
55.508842 16.055971 -1.3314838 0.79358184
55.508804 15.963266 -1.3450269 0.79366249
55.508804 15.870659 -1.3585584 0.79374254
55.508755 15.778139 -1.3720661 0.79382217
55.508743 15.685649 -1.3855621 0.79390126
55.508724 15.593198 -1.3990625 0.79397988
55.508686 15.500825 -1.4125292 0.79405808
55.508686 15.40854 -1.4260139 0.79413557
55.508656 15.316294 -1.4394667 0.79421276
55.508625 15.224087 -1.4529067 0.79428947
55.508587 15.131958 -1.4663458 0.79436564
55.508587 15.039887 -1.4797747 0.79444128
55.50856 14.947837 -1.4931866 0.79451656
55.50853 14.855884 -1.5065958 0.79459125
55.508499 14.763969 -1.5199835 0.79466552
55.508499 14.672094 -1.53337 0.79473925
55.50845 14.580278 -1.5467428 0.79481256
55.508442 14.48856 -1.5601016 0.79488528
55.508404 14.396851 -1.5734531 0.79495764
55.508404 14.3052 -1.5868045 0.7950294
55.508381 14.213628 -1.6001287 0.79510075
55.508354 14.122114 -1.613453 0.79517156
55.508324 14.03059 -1.6267725 0.79524201
55.508305 13.939136 -1.640072 0.79531187
55.508293 13.847778 -1.6533612 0.79538125
55.508266 13.75647 -1.6666442 0.79545021
55.508236 13.665161 -1.6799102 0.7955187
55.508217 13.573901 -1.6931781 0.79558665
55.508198 13.482719 -1.7064372 0.79565418
55.508167 13.391586 -1.7196765 0.79572117
55.508137 13.300503 -1.7329168 0.79578775
55.508129 13.209507 -1.7461457 0.79585373
55.508099 13.118481 -1.7593603 0.79591936
55.50808 13.027534 -1.7725635 0.79598451
55.508049 12.936625 -1.7857678 0.79604918
55.50803 12.845747 -1.7989531 0.79611331
55.508011 12.754917 -1.8121403 0.79617703
43.402317 9.9022608 -1.4272355 0.83680695
43.40266 9.8314009 -1.4375341 0.83685732
43.403023 9.7605715 -1.4478288 0.83690715
43.50927 9.7134228 -1.4616897 0.83659333
43.837017 9.7150536 -1.4830748 0.83552045
33.420414 7.352036 -1.138569 0.87201041
33.297848 7.2707763 -1.142271 0.87248814
33.190445 7.1932178 -1.1464304 0.87291133
33.015022 7.1014209 -1.1481669 0.87357736
32.995647 7.04353 -1.1552788 0.873685
32.976322 6.9857373 -1.1623753 0.87379223
32.960873 6.928833 -1.1695979 0.87388521
32.946968 6.8723288 -1.1768684 0.8739723
32.93359 6.81603 -1.1841449 0.87405717
32.94138 6.7641163 -1.19218 0.87406617
32.949173 6.7122021 -1.200206 0.87407482
32.955826 6.6600437 -1.2081987 0.87408727
32.185501 6.4521337 -1.1875125 0.87687635
32.165569 6.3959718 -1.1943318 0.87698251
32.177994 6.3462548 -1.2023386 0.87697262
32.229565 6.3041844 -1.2118226 0.87682247
33.040257 6.4092236 -1.2500503 0.87396282
33.073082 6.3620458 -1.2590379 0.87388033
33.10598 6.3147607 -1.2680427 0.87379736
33.137543 6.2671728 -1.2770078 0.87371892
33.186157 6.2226706 -1.2866418 0.8735795
33.248589 6.1806102 -1.2968407 0.87339085
33.311031 6.1383739 -1.3070493 0.87320203
33.373707 6.0959911 -1.3173057 0.87301219
33.436615 6.053452 -1.3275955 0.87282139
34.993149 6.2787256 -1.3975588 0.86734563
35.0369 6.2300143 -1.4074752 0.86722469
35.080757 6.1811862 -1.4174157 0.8671031
35.699448 6.2326121 -1.4507291 0.86495847
37.66975 6.5158544 -1.5395613 0.85809499
35.250347 6.0405221 -1.4488901 0.86660331
35.336666 5.998374 -1.4606674 0.86633152
35.423424 5.9560304 -1.4724815 0.86605811
38.752945 6.4534225 -1.6198905 0.85446483
38.824741 6.4028854 -1.6319087 0.85424948
38.822006 6.3399167 -1.640813 0.85429221
40.315365 6.5189109 -1.7132833 0.84916675
40.306938 6.4527097 -1.7222738 0.8492294
40.912258 6.4838133 -1.757635 0.84718132
41.295151 6.4781103 -1.7836617 0.84590101
41.070618 6.3768702 -1.7834744 0.84670419
41.312027 6.3479638 -1.8035334 0.8459093
41.741096 6.3468504 -1.83193 0.84447312
42.179077 6.3456979 -1.8609135 0.84300929
42.983421 6.3976512 -1.9063482 0.84030122
42.756145 6.2952099 -1.9061586 0.84110695
42.531479 6.193872 -1.9059711 0.84190387
42.309185 6.0935788 -1.9057854 0.84269273
42.089272 5.9944091 -1.9056019 0.84347355
42.480373 5.981987 -1.9331254 0.84217107
42.919624 5.9750047 -1.9630241 0.84070712
43.410141 5.9737158 -1.9954764 0.83907211
43.503746 5.9168506 -2.0098193 0.83878487
43.283783 5.8175635 -2.0096357 0.83956045
43.065865 5.7192626 -2.0094538 0.84032911
42.850483 5.6220751 -2.009274 0.84108913
42.637074 5.5257764 -2.0090957 0.84184253
42.425892 5.4304833 -2.0089195 0.84258837
42.216888 5.3361082 -2.008745 0.84332681
42.009995 5.2427292 -2.0085723 0.8440581
41.805199 5.1502781 -2.0084014 0.84478217
41.602486 5.0587254 -2.0082321 0.84549922
41.401672 4.968081 -2.0080643 0.8462097
41.202885 4.8783445 -2.0078986 0.84691334
41.006069 4.7894678 -2.0077341 0.84761018
40.811184 4.7014499 -2.0075715 0.8483004
40.618092 4.614253 -2.0074103 0.84898442
40.427017 4.527905 -2.0072508 0.84966159
40.237778 4.4424167 -2.0070927 0.85033238
40.050266 4.357739 -2.0069361 0.85099721
39.864555 4.2738132 -2.0067811 0.85165584
39.680523 4.1906886 -2.0066276 0.85230869
39.498314 4.1083546 -2.0064752 0.85295522
39.317837 4.0267529 -2.0063245 0.85359573
39.138863 3.9459229 -2.0061753 0.85423106
38.961819 3.8658741 -2.0060272 0.85485965
38.786156 3.786499 -2.0058806 0.85548341
38.612297 3.707876 -2.0057354 0.85610098
38.439957 3.629956 -2.0055916 0.85671318
38.269085 3.5527587 -2.0054488 0.85732025
38.099838 3.4762061 -2.0053077 0.85792172
37.932144 3.4003661 -2.0051675 0.85851765
37.765862 3.3251708 -2.0050287 0.85910875
37.601067 3.250659 -2.0048912 0.85969454
37.43774 3.1768017 -2.0047548 0.86027521
37.275852 3.103579 -2.0046196 0.86085081
37.115475 3.0309911 -2.0044856 0.86142117
36.956402 2.959038 -2.0043526 0.86198682
36.798656 2.8877001 -2.004221 0.86254787
36.642357 2.8169775 -2.0040905 0.86310381
36.487377 2.7468603 -2.0039611 0.86365503
36.333668 2.6773291 -2.0038326 0.86420178
36.181332 2.6083543 -2.0037055 0.86474371
36.03022 2.539995 -2.0035791 0.86528122
35.880455 2.4722216 -2.0034542 0.86581403
35.731869 2.4049754 -2.00333 0.8663426
35.584534 2.3382764 -2.003207 0.86686677
35.438499 2.2721727 -2.0030851 0.86738628
35.293598 2.2065868 -2.002964 0.86790174
35.149868 2.1415186 -2.0028441 0.86841303
35.007339 2.0769775 -2.0027251 0.86892003
34.86594 2.0129833 -2.0026069 0.86942303
34.725727 1.9494482 -2.0024898 0.86992174
34.586605 1.8864697 -2.0023737 0.87041658
34.44857 1.8239893 -2.0022583 0.87090749
34.311741 1.7620068 -2.0021439 0.8713941
34.175953 1.7005029 -2.0020306 0.8718769
34.041138 1.6394775 -2.0019181 0.87235624
33.907543 1.5789306 -2.0018063 0.87283123
33.774937 1.5188525 -2.0016954 0.87330264
33.643353 1.459253 -2.0015857 0.87377036
33.512711 1.4000927 -2.0014765 0.87423468
33.38316 1.3413916 -2.0013683 0.87469506
33.254585 1.2831396 -2.001261 0.87515187
33.127064 1.2253467 -2.0011544 0.87560493
33.000385 1.1679639 -2.0010486 0.87605494
32.874779 1.1110302 -2.0009437 0.87650102
32.750061 1.0545263 -2.0008395 0.87694389
32.626282 0.9984228 -2.000736 0.87738335
32.503433 0.94273925 -2.0006335 0.87781942
32.381477 0.88747555 -2.0005317 0.87825227
32.260494 0.83262205 -2.0004306 0.87868154
32.140347 0.77816892 -2.0003302 0.87910777
32.021069 0.72409666 -2.0002306 0.87953085
31.902651 0.67044431 -2.0001316 0.87995082
31.785151 0.61716306 -2.0000334 0.8803674
31.66851 0.56427246 -1.999936 0.88078082
31.552631 0.51176268 -1.9998392 0.88119149
31.437601 0.45962402 -1.9997431 0.88159901
31.323442 0.40785643 -1.9996477 0.88200337
31.210062 0.3564502 -1.9995531 0.88240486
31.097504 0.30538574 -1.999459 0.88280332
30.985796 0.25470215 -1.9993657 0.88319868
30.87475 0.20439941 -1.9992728 0.88359153
30.764584 0.15441895 -1.9991809 0.88398123
30.65513 0.10476074 -1.9990894 0.8843683
30.54641 0.055473633 -1.9989985 0.88475263
30.438499 0.0065673827 -1.9989085 0.88513398
30.331274 -0.04206543 -1.9988188 0.88551277
30.224829 -0.090346679 -1.9987299 0.88588876
30.119085 -0.13829589 -1.9986416 0.88626206
30.014067 -0.18595214 -1.9985539 0.88663274
29.90975 -0.23324707 -1.9984666 0.8870008
29.806187 -0.28024903 -1.9983801 0.88736606
29.703238 -0.32693848 -1.9982942 0.88772905
29.60099 -0.37330565 -1.9982088 0.88808942
29.499456 -0.41936034 -1.9981239 0.88844717
29.39852 -0.46514159 -1.9980395 0.88880265
29.298363 -0.51059079 -1.9979559 0.88915527
29.198744 -0.55574703 -1.9978727 0.88950586
29.099867 -0.60062987 -1.99779 0.88985372
29.001635 -0.64520019 -1.997708 0.89019918
28.903978 -0.68949705 -1.9976263 0.89054245
28.806976 -0.73351073 -1.9975452 0.89088327
28.710659 -0.77722168 -1.9974649 0.89122158
28.614838 -0.82065916 -1.9973848 0.89155799
28.519711 -0.86383301 -1.9973053 0.89189178
28.42515 -0.90672362 -1.9972264 0.89222354
28.331146 -0.94937009 -1.9971478 0.89255309
28.237806 -0.99171382 -1.9970698 0.8928802
28.145073 -1.0338135 -1.9969923 0.89320511
28.052847 -1.0756298 -1.9969152 0.89352804
27.961205 -1.1172022 -1.9968387 0.89384878
27.870152 -1.1585205 -1.9967626 0.8941673
27.779663 -1.199585 -1.9966869 0.89448369
27.689751 -1.2403858 -1.996612 0.89479792
27.600346 -1.2809228 -1.9965371 0.89511025
27.511459 -1.3212548 -1.9964629 0.89542061
27.423159 -1.3613037 -1.9963892 0.89572877
27.335375 -1.4011475 -1.9963158 0.89603496
27.24811 -1.4406983 -1.9962429 0.89633918
27.1614 -1.4800537 -1.9961704 0.89664131
27.075199 -1.5191846 -1.9960984 0.89694154
26.989506 -1.5580517 -1.9960269 0.8972398
26.904291 -1.5966846 -1.9959556 0.89753628
26.819624 -1.6351221 -1.995885 0.89783067
26.735395 -1.6733056 -1.9958144 0.89812338
26.651743 -1.7112842 -1.9957446 0.89841396
26.56851 -1.7490185 -1.9956752 0.89870286
26.485756 -1.7865478 -1.9956061 0.89898998
26.403549 -1.8238525 -1.9955372 0.899275
26.321762 -1.8609424 -1.995469 0.89955848
26.240414 -1.8978174 -1.9954009 0.89984024
26.159555 -1.934497 -1.9953336 0.90012014
26.079155 -1.9709424 -1.9952662 0.90039825
25.999262 -2.0072021 -1.9951996 0.90067446
25.703276 -2.0261767 -1.9784698 0.90173441
25.16564 -2.0247607 -1.9429466 0.90367413
24.726557 -2.0297217 -1.9148022 0.90525913
24.34515 -2.0380809 -1.8909431 0.9066366
24.27146 -2.0714796 -1.8908817 0.906892
24.198189 -2.104702 -1.8908204 0.90714574
24.125357 -2.1377392 -1.8907596 0.90739781
24.052904 -2.1705909 -1.8906989 0.90764844
24.086235 -2.2129345 -1.8989487 0.90751207
23.909193 -2.2357569 -1.8905789 0.90814501
23.837875 -2.2680614 -1.8905194 0.90839118
23.766987 -2.3001904 -1.8904601 0.90863574
23.69648 -2.3321533 -1.8904012 0.90887874
23.626343 -2.3639503 -1.8903427 0.90912038
23.556576 -2.3955615 -1.8902844 0.90936053
23.487221 -2.4270067 -1.8902264 0.90959913
23.418198 -2.458286 -1.8901687 0.90983641
23.349535 -2.4893897 -1.8901114 0.91007227
22.572445 -2.4435985 -1.8325143 0.91291487
22.329018 -2.4539306 -1.8179997 0.91379631
22.328705 -2.4906006 -1.823228 0.91378117
22.328382 -2.5272899 -1.8284581 0.91376585
22.32806 -2.5639989 -1.833692 0.91375035
22.327749 -2.6007276 -1.8389297 0.91373456
22.327406 -2.6374657 -1.8441693 0.91371864
22.327084 -2.6742237 -1.8494134 0.91370237
22.326782 -2.7110107 -1.8546557 0.91368586
22.32645 -2.7478173 -1.8599055 0.91366923
22.617485 -2.820991 -1.8894999 0.9125762
22.552954 -2.8502002 -1.889446 0.91279596
22.488745 -2.8792725 -1.8893925 0.91301441
22.424839 -2.9081786 -1.8893391 0.91323167
22.361303 -2.9369385 -1.889286 0.9134475
22.29808 -2.9656005 -1.8892332 0.91366208
22.235151 -2.9940867 -1.8891805 0.91387552
22.172533 -3.0224071 -1.8891283 0.91408771
22.110199 -3.0506005 -1.8890764 0.91429883
22.048218 -3.0786376 -1.8890245 0.91450852
21.986519 -3.1065869 -1.888973 0.91471708
21.925102 -3.1343505 -1.8889217 0.91492456
21.864008 -3.1619971 -1.8888706 0.91513079
21.803188 -3.1894872 -1.8888198 0.91533589
21.742651 -3.2168603 -1.8887694 0.91553986
21.682426 -3.2440965 -1.8887191 0.91574264
21.622465 -3.2711864 -1.8886689 0.91594434
21.562817 -3.2981787 -1.8886192 0.91614485
21.503452 -3.324995 -1.8885696 0.91634423
21.44437 -3.3517139 -1.8885204 0.91654241
21.385542 -3.3782861 -1.8884711 0.91673964
21.326996 -3.4047313 -1.8884224 0.91693574
21.268755 -3.4310694 -1.8883737 0.91713065
21.210756 -3.4572704 -1.8883251 0.9173246
21.153011 -3.4833543 -1.8882771 0.91751748
21.095562 -3.5093017 -1.888229 0.91770929
21.038364 -3.5351512 -1.8881812 0.91790003
20.98144 -3.5608447 -1.8881338 0.91808969
20.924751 -3.5864403 -1.8880866 0.9182784
20.868334 -3.6118896 -1.8880394 0.91846603
20.812202 -3.6372509 -1.8879925 0.91865253
20.756294 -3.6624658 -1.8879458 0.91883814
20.7006 -3.6875634 -1.8878993 0.91902286
20.645229 -3.7125828 -1.887853 0.91920632
20.590063 -3.7374561 -1.8878071 0.91938895
20.535181 -3.7622313 -1.8877612 0.91957045
20.480503 -3.7868798 -1.8877156 0.91975117
20.426069 -3.8114209 -1.8876703 0.91993088
20.371889 -3.8358543 -1.887625 0.92010951
20.317944 -3.8601708 -1.8875799 0.92028731
20.264204 -3.8843799 -1.8875351 0.92046422
20.210747 -3.9084716 -1.8874905 0.92063999
20.157484 -3.9324658 -1.887446 0.92081499
20.104517 -3.9563525 -1.8874018 0.9209888
20.051723 -3.9801319 -1.8873577 0.92116189
19.999155 -4.0037842 -1.887314 0.92133415
19.946821 -4.0273585 -1.8872702 0.92150539
19.894701 -4.0508151 -1.8872267 0.9216758
19.842817 -4.0741844 -1.8871835 0.92184526
19.791157 -4.0974364 -1.8871403 0.92201382
19.739731 -4.1205907 -1.8870975 0.92218143
19.688471 -4.1436181 -1.8870547 0.92234832
19.637445 -4.1665769 -1.8870121 0.92251432
19.586636 -4.1894288 -1.8869697 0.92267942
19.536039 -4.212173 -1.8869275 0.92284369
19.485678 -4.2348194 -1.8868855 0.92300701
19.435472 -4.2573776 -1.8868436 0.92316961
19.385511 -4.279829 -1.8868018 0.92333132
19.335728 -4.3022022 -1.8867604 0.92349225
19.286196 -4.3244581 -1.886719 0.92365217
19.236801 -4.3466163 -1.8866779 0.92381155
19.187679 -4.3687158 -1.886637 0.92396981
19.138706 -4.3906884 -1.8865961 0.92412746
19.089956 -4.4125733 -1.8865554 0.92428422
19.041391 -4.43437 -1.8865149 0.92444021
18.993002 -4.4560595 -1.8864746 0.92459553
18.944809 -4.4776902 -1.8864343 0.92474997
18.896851 -4.4992042 -1.8863943 0.92490351
18.849018 -4.5206394 -1.8863544 0.92505652
18.801411 -4.5419679 -1.8863147 0.92520863
18.753979 -4.5632372 -1.8862752 0.92535996
18.706753 -4.5843992 -1.8862357 0.92551053
18.659702 -4.6054835 -1.8861965 0.92566031
18.612827 -4.6264601 -1.8861575 0.92580944
18.566156 -4.647368 -1.8861185 0.92595768
18.519653 -4.6682081 -1.8860798 0.92610526
18.473305 -4.6889305 -1.8860412 0.92625219
18.427153 -4.7095752 -1.8860028 0.92639834
18.381176 -4.7301612 -1.8859643 0.92654371
18.335356 -4.7506299 -1.8859261 0.92668849
18.289751 -4.77104 -1.8858882 0.92683238
18.244282 -4.7913427 -1.8858503 0.92697567
18.199018 -4.8116064 -1.8858125 0.92711812
18.153891 -4.8317432 -1.885775 0.9272601
18.108959 -4.8518209 -1.8857374 0.92740119
18.064175 -4.8718214 -1.8857002 0.92754167
18.019556 -4.8917432 -1.8856629 0.92768151
17.975122 -4.9115868 -1.8856261 0.92782056
17.930864 -4.9313426 -1.8855891 0.92795891
17.886732 -4.9510202 -1.8855523 0.92809671
17.842798 -4.9706202 -1.8855157 0.92823368
17.798979 -4.9901609 -1.8854792 0.92837018
17.755356 -5.0096045 -1.8854427 0.9285059
17.711861 -5.0289893 -1.8854066 0.92864102
17.66853 -5.0482764 -1.8853706 0.92877549
17.625385 -5.0674949 -1.8853346 0.92890924
17.582357 -5.0866551 -1.8852987 0.92904246
17.539516 -5.1057272 -1.885263 0.9291749
17.496801 -5.1247511 -1.8852274 0.92930681
17.454252 -5.1436667 -1.885192 0.92943805
17.411869 -5.1625242 -1.8851569 0.92956865
17.369585 -5.1813035 -1.8851216 0.92969877
17.327515 -5.2000241 -1.8850864 0.92982799
17.285542 -5.218667 -1.8850515 0.92995679
17.243734 -5.2372413 -1.8850168 0.93008494
17.202085 -5.2557373 -1.8849821 0.93021244
17.160551 -5.2741747 -1.8849474 0.93033946
17.119175 -5.2925439 -1.884913 0.93046576
17.077953 -5.3108349 -1.8848786 0.93059146
17.03684 -5.3290672 -1.8848444 0.93071669
16.995893 -5.3472118 -1.8848104 0.93084127
16.955063 -5.3652978 -1.8847765 0.9309653
16.914429 -5.3833251 -1.8847425 0.93108857
16.873882 -5.4012742 -1.8847088 0.93121141
16.833481 -5.4191847 -1.8846753 0.93133366
16.793207 -5.4369969 -1.8846416 0.93145537
16.75308 -5.454751 -1.8846083 0.93157649
16.713091 -5.472446 -1.884575 0.93169701
16.673218 -5.4900732 -1.8845419 0.931817
16.633492 -5.5076413 -1.8845087 0.93193644
16.593901 -5.5251417 -1.8844758 0.93205523
16.554438 -5.542583 -1.884443 0.93217355
16.515074 -5.5599461 -1.8844104 0.93229145
16.475883 -5.5772605 -1.8843777 0.93240857
16.436792 -5.5945163 -1.8843452 0.93252528
16.397827 -5.6116943 -1.8843127 0.93264151
16.358978 -5.6288233 -1.8842806 0.93275714
16.320288 -5.6458836 -1.8842483 0.93287224
16.281713 -5.6628857 -1.8842163 0.93298674
16.243267 -5.6798291 -1.8841842 0.93310076
16.204916 -5.6967139 -1.8841523 0.93321431
16.166704 -5.7135301 -1.8841206 0.93332732
16.128618 -5.730288 -1.8840889 0.93343979
16.090639 -5.7469873 -1.8840573 0.93355179
16.052778 -5.763628 -1.8840258 0.93366331
16.015043 -5.7802196 -1.8839946 0.93377423
15.977427 -5.7967429 -1.8839632 0.93388468
15.939926 -5.8131981 -1.883932 0.93399465
15.902554 -5.8296142 -1.883901 0.93410408
15.865288 -5.8459716 -1.88387 0.93421304
15.828139 -5.8622804 -1.8838392 0.93432146
15.791088 -5.8785205 -1.8838084 0.93442953
15.754155 -5.894702 -1.8837777 0.93453705
15.717358 -5.9108348 -1.8837471 0.93464398
15.680649 -5.9268994 -1.8837166 0.93475056
15.644067 -5.942915 -1.8836862 0.93485659
15.607573 -5.9588819 -1.8836559 0.93496227
15.571216 -5.9747901 -1.8836257 0.93506736
15.534956 -5.9906397 -1.8835956 0.93517196
15.498784 -6.0064502 -1.8835654 0.93527621
18.622572 -7.2528272 -2.2684379 0.92269766
18.646587 -7.2980614 -2.2766247 0.92255187
18.670767 -7.3435106 -2.2848482 0.92240506
18.694994 -7.3891158 -2.293098 0.92225766
18.719379 -7.4349561 -2.3013899 0.92210925
18.743765 -7.4809127 -2.3097062 0.92196047
18.768295 -7.5271044 -2.318064 0.92181069
18.792894 -7.573452 -2.3264534 0.92166018
18.817574 -7.6200047 -2.3348773 0.92150897
18.842367 -7.6667428 -2.3433352 0.92135698
18.867222 -7.7136669 -2.3518298 0.92120421
18.837866 -7.738452 -2.3535719 0.92126852
18.789654 -7.7554049 -2.3529446 0.92140836
18.741587 -7.7722898 -2.35232 0.92154765
18.693676 -7.7891259 -2.3516979 0.92168623
18.645962 -7.8058934 -2.3510785 0.9218241
18.598413 -7.8225927 -2.3504617 0.92196125
18.550991 -7.8392429 -2.3498473 0.92209792
18.503775 -7.8558249 -2.3492355 0.92223376
18.456694 -7.8723288 -2.3486288 0.92236912
18.409771 -7.8888035 -2.3480222 0.92250371
18.362993 -7.9052 -2.3474207 0.92263782
18.316401 -7.9215379 -2.3468204 0.92277116
18.269957 -7.9378171 -2.3462229 0.9229039
18.223658 -7.9540477 -2.345629 0.92303604
18.177525 -7.9702096 -2.3450375 0.92316753
18.131538 -7.9863229 -2.3444488 0.92329842
18.085697 -8.002368 -2.3438601 0.92342871
18.037367 -8.0171824 -2.3429334 0.92356914
17.974779 -8.0254927 -2.3401306 0.92376769
17.912554 -8.0337648 -2.3373451 0.92396498
17.850611 -8.041997 -2.3345749 0.92416114
17.788988 -8.0501709 -2.3318193 0.92435616
17.734097 -8.0612249 -2.3299196 0.92452377
17.687475 -8.0758839 -2.3290844 0.92465764
17.64101 -8.0904732 -2.328254 0.92479086
17.594702 -8.1050243 -2.3274288 0.92492348
17.548559 -8.1195259 -2.326606 0.92505538
17.502554 -8.1339598 -2.3257871 0.92518681
17.456753 -8.1483641 -2.3249707 0.92531735
17.411058 -8.1626902 -2.3241603 0.92544752
17.365551 -8.1769581 -2.3233528 0.92557693
17.320181 -8.1912155 -2.3225455 0.92570573
17.274965 -8.2053852 -2.3217452 0.925834
17.229906 -8.2195063 -2.3209503 0.92596161
17.185024 -8.2335787 -2.3201554 0.92608857
17.140249 -8.247612 -2.3193631 0.92621499
17.09564 -8.2615871 -2.3185782 0.92634082
17.051207 -8.2755127 -2.3177934 0.92646593
17.006861 -8.2893896 -2.3170135 0.92659068
16.962709 -8.3032074 -2.3162363 0.92671466
16.918667 -8.3169966 -2.3154616 0.92683816
16.8748 -8.330718 -2.314692 0.926961
16.831049 -8.3443899 -2.3139248 0.92708337
16.787485 -8.3580322 -2.3131604 0.92720497
16.744019 -8.3716059 -2.3124008 0.9273262
16.700708 -8.3851223 -2.311646 0.92744678
16.657553 -8.3986082 -2.3108916 0.92756677
16.614527 -8.412055 -2.3101397 0.92768615
16.571615 -8.4254446 -2.3093929 0.92780513
16.528872 -8.4387941 -2.3086486 0.92792344
16.486225 -8.4520941 -2.3079093 0.92804128
16.442505 -8.4646921 -2.3069983 0.92816377
16.397211 -8.4763918 -2.3058498 0.92829281
16.352104 -8.4880323 -2.3047063 0.9284212
16.307114 -8.4996338 -2.3035703 0.92854911
16.26231 -8.5111866 -2.3024368 0.92867631
16.217661 -8.5226898 -2.3013086 0.92880285
16.173159 -8.5341644 -2.3001876 0.92892885
16.128813 -8.5455809 -2.2990692 0.9290542
16.084604 -8.5569677 -2.2979555 0.92917901
16.040581 -8.5682955 -2.2968471 0.92930317
15.996665 -8.5795851 -2.2957437 0.92942679
15.952944 -8.5908442 -2.2946429 0.92954969
15.909341 -8.6020555 -2.2935483 0.92967212
15.865884 -8.6132269 -2.2924585 0.92979401
15.822582 -8.624341 -2.2913728 0.92991525
15.779428 -8.6354342 -2.2902918 0.93003589
15.736421 -8.6464891 -2.2892134 0.93015593
15.690903 -8.6560106 -2.2877555 0.93028688
15.644076 -8.6646919 -2.286082 0.93042344
15.597387 -8.6733246 -2.2844207 0.93055946
15.550913 -8.6819086 -2.2827644 0.93069476
15.504614 -8.6904926 -2.2811146 0.93082923
15.458471 -8.6990089 -2.2794759 0.93096322
15.412524 -8.7075043 -2.2778406 0.93109643
15.366733 -8.7159719 -2.276212 0.931229
15.321108 -8.7243795 -2.2745905 0.93136096
15.275679 -8.7327681 -2.272979 0.93149215
15.230414 -8.7411184 -2.2713726 0.93162274
15.185308 -8.7494287 -2.2697713 0.93175274
15.140356 -8.7577 -2.2681797 0.93188208
15.09561 -8.7659426 -2.2665932 0.93201071
15.05101 -8.7741451 -2.2650166 0.93213874
15.006548 -8.7823286 -2.2634425 0.93226618
14.962299 -8.7904634 -2.2618759 0.9323929
14.918179 -8.7985792 -2.2603166 0.93251902
14.874233 -8.8066549 -2.258765 0.93264455
14.830424 -8.814702 -2.2572184 0.93276948
14.788432 -8.8236666 -2.255929 0.9328866
14.754292 -8.8372211 -2.2558227 0.93296933
14.72021 -8.8507566 -2.2557144 0.93305176
14.686196 -8.8642626 -2.2556109 0.93313384
14.65228 -8.8776999 -2.2555068 0.93321556
14.618462 -8.891118 -2.255404 0.93329686
14.584682 -8.9045067 -2.2553031 0.93337786
14.550991 -8.9178467 -2.2552023 0.93345857
14.517397 -8.9311666 -2.255101 0.93353873
14.483862 -8.944438 -2.2550032 0.93361872
14.450385 -8.9576807 -2.2549052 0.93369836
14.416997 -8.9708929 -2.2548096 0.93377763
14.383706 -8.984067 -2.2547138 0.93385643
14.350464 -8.9972019 -2.2546184 0.93393505
14.3173 -9.0103073 -2.2545247 0.93401331
14.284233 -9.0233736 -2.2544324 0.93409109
14.251186 -9.0364208 -2.2543426 0.93416876
14.218246 -9.0494184 -2.254252 0.93424594
14.185395 -9.0623875 -2.2541611 0.93432277
14.152593 -9.0753174 -2.2540731 0.93439931
14.119858 -9.0882273 -2.2539878 0.93447554
14.087202 -9.1011038 -2.2538996 0.93455142
14.054605 -9.1139402 -2.2538157 0.934627
14.022104 -9.1267433 -2.2537315 0.93470216
13.989663 -9.1395168 -2.2536471 0.93477708
13.957271 -9.1522608 -2.2535644 0.93485171
13.924955 -9.1649704 -2.253485 0.93492597
13.892724 -9.1776514 -2.2534037 0.93499982
13.860561 -9.1902981 -2.2533243 0.93507344
13.828447 -9.2029104 -2.2532468 0.93514675
13.796401 -9.215498 -2.2531679 0.93521971
13.764443 -9.2280369 -2.2530942 0.93529236
13.732519 -9.2405567 -2.2530181 0.93536478
13.700707 -9.2530613 -2.2529447 0.93543667
13.664623 -9.2626123 -2.2521658 0.93552804
13.625542 -9.2699995 -2.2508678 0.93563318
13.586562 -9.2773533 -2.2495775 0.93573791
13.547686 -9.2846823 -2.2482932 0.93584222
13.50896 -9.2919769 -2.2470102 0.93594599
13.470322 -9.2992477 -2.2457335 0.93604934
13.43183 -9.3064938 -2.2444642 0.93615216
13.393442 -9.3137255 -2.243196 0.9362545
13.355181 -9.3208933 -2.2419379 0.93635643
13.317017 -9.3280611 -2.2406797 0.93645787
13.279003 -9.3351955 -2.2394254 0.93655878
13.255669 -9.3526125 -2.2406466 0.93659174
13.232485 -9.3700581 -2.2418811 0.93662399
13.209311 -9.3874998 -2.2431171 0.93665606
13.186132 -9.4049263 -2.2443531 0.93668795
13.163003 -9.4223089 -2.245589 0.93671966
13.139858 -9.4396973 -2.246825 0.93675125
13.116753 -9.4570408 -2.2480597 0.9367826
13.093662 -9.4743891 -2.2492919 0.93681371
13.070576 -9.491704 -2.2505255 0.93684477
13.047524 -9.5090036 -2.2517602 0.93687552
13.024477 -9.5262737 -2.2529938 0.93690616
13.001426 -9.5435591 -2.2542274 0.93693662
12.978417 -9.560791 -2.255455 0.9369669
12.955415 -9.5780077 -2.2566886 0.936997
12.932441 -9.5951948 -2.2579224 0.93702692
12.909468 -9.612402 -2.259151 0.93705666
12.886518 -9.6295509 -2.2603848 0.93708622
12.863584 -9.646699 -2.2616148 0.93711555
12.840659 -9.6638279 -2.2628424 0.93714476
12.817744 -9.6809273 -2.2640762 0.93717384
12.794858 -9.6980124 -2.2653062 0.93720269
12.771968 -9.7150726 -2.266535 0.93723142
12.749116 -9.7321339 -2.2677627 0.93725985
12.721684 -9.7456789 -2.2681801 0.93730998
12.687885 -9.7542286 -2.267446 0.93739057
12.65414 -9.7627535 -2.2667105 0.93747091
12.620493 -9.7712498 -2.2659814 0.93755084
12.586928 -9.7797365 -2.2652521 0.93763041
12.553432 -9.7881985 -2.264528 0.93770963
12.520024 -9.7966261 -2.2638099 0.93778855
12.486704 -9.8050337 -2.2630897 0.93786705
12.453452 -9.8134222 -2.2623765 0.93794525
12.420288 -9.8217916 -2.2616673 0.93802303
12.387221 -9.8301363 -2.2609518 0.93810046
12.354223 -9.8384466 -2.2602489 0.93817753
12.321289 -9.8467379 -2.2595482 0.93825436
12.288452 -9.8550196 -2.2588489 0.93833071
12.255693 -9.863266 -2.2581508 0.93840683
12.223002 -9.8714991 -2.2574565 0.93848252
12.190395 -9.8797064 -2.2567673 0.93855792
12.157846 -9.8878908 -2.2560782 0.93863302
12.125401 -9.8960543 -2.2553937 0.93870771
12.093022 -9.9041843 -2.2547143 0.9387821
12.060727 -9.9123049 -2.254035 0.93885612
12.028496 -9.9204054 -2.2533607 0.93892986
11.996338 -9.9284811 -2.2526863 0.93900323
11.964282 -9.9365282 -2.2520168 0.93907624
11.932275 -9.9445553 -2.2513475 0.93914902
11.900336 -9.9525728 -2.2506857 0.93922138
11.868437 -9.9605026 -2.2500141 0.93929374
11.83623 -9.9681149 -2.2492714 0.93936759
11.804072 -9.9756927 -2.2485337 0.9394412
11.772007 -9.9832468 -2.2477961 0.93951446
11.740014 -9.9907808 -2.2470684 0.93958741
11.708091 -9.9983101 -2.2463357 0.93966001
11.676254 -10.005811 -2.2456081 0.93973225
11.642905 -10.011933 -2.2445819 0.93981206
11.605366 -10.01435 -2.2427337 0.93991303
11.567954 -10.016752 -2.2408905 0.94001347
11.530668 -10.01914 -2.2390571 0.94011343
11.493505 -10.021523 -2.2372284 0.94021291
11.45645 -10.023887 -2.23541 0.94031197
11.419526 -10.02625 -2.2336011 0.94041049
11.38271 -10.028604 -2.2317924 0.9405086
11.34604 -10.030942 -2.2299936 0.94060618
11.309458 -10.033266 -2.2282045 0.94070333
11.273012 -10.03559 -2.2264206 0.94080001
11.236674 -10.037915 -2.2246416 0.94089621
11.200468 -10.040205 -2.2228725 0.94099194
11.16436 -10.04249 -2.2211082 0.94108725
11.128364 -10.044765 -2.2193537 0.94118214
11.092495 -10.047036 -2.2176044 0.94127655
11.056743 -10.049292 -2.2158649 0.94137049
11.021089 -10.051548 -2.2141254 0.94146395
10.985557 -10.053789 -2.2124007 0.94155699
10.950122 -10.056021 -2.210676 0.94164968
10.914819 -10.058228 -2.2089612 0.94174182
10.87959 -10.060444 -2.2072561 0.94183362
10.844517 -10.062641 -2.2055511 0.94192493
10.809506 -10.064829 -2.203861 0.94201589
10.774643 -10.067012 -2.2021711 0.94210625
10.739868 -10.069184 -2.2004907 0.94219631
10.705191 -10.071352 -2.1988106 0.94228595
10.670639 -10.073501 -2.197145 0.94237512
10.636187 -10.07564 -2.195482 0.94246387
10.601826 -10.077778 -2.1938241 0.94255227
10.567583 -10.079892 -2.1921785 0.94264019
10.533427 -10.082022 -2.1905327 0.94272768
10.49939 -10.084126 -2.1888971 0.94281483
10.465429 -10.08623 -2.1872661 0.94290155
10.431597 -10.08832 -2.1856403 0.94298786
10.397846 -10.090395 -2.1840243 0.94307381
10.364203 -10.09247 -2.1824083 0.94315928
10.330668 -10.094531 -2.1808023 0.9432444
10.297226 -10.096586 -2.1792011 0.9433291
10.263872 -10.098628 -2.1776099 0.94341344
10.230615 -10.100659 -2.1760232 0.94349736
10.197451 -10.102685 -2.1744421 0.94358093
10.164413 -10.104712 -2.1728656 0.94366401
10.13144 -10.106724 -2.171294 0.94374681
10.098574 -10.108726 -2.1697273 0.94382918
10.065796 -10.110718 -2.1681707 0.94391119
10.03312 -10.1127 -2.1666188 0.94399279
10.000512 -10.114677 -2.1650722 0.94407409
9.965395 -10.113989 -2.1629627 0.94416922
9.9303808 -10.113276 -2.1608536 0.94426399
9.895483 -10.112563 -2.1587589 0.94435835
9.8607082 -10.111856 -2.1566694 0.94445217
9.8260403 -10.111137 -2.1545899 0.94454557
9.7914886 -10.11041 -2.1525149 0.94463855
9.7570362 -10.109707 -2.15045 0.94473112
9.7227097 -10.108989 -2.1483951 0.94482315
9.6885004 -10.108276 -2.1463497 0.94491476
9.6544094 -10.107563 -2.1443098 0.94500589
9.6204243 -10.10686 -2.1422791 0.94509661
9.5899067 -10.109697 -2.141012 0.9451682
9.5594769 -10.112519 -2.1397445 0.94523948
9.5291262 -10.115322 -2.1384823 0.94531041
9.4988327 -10.118134 -2.1372201 0.94538105
9.4686279 -10.120928 -2.1359725 0.94545132
9.4385004 -10.12372 -2.1347201 0.9455213
9.4084425 -10.126493 -2.1334777 0.94559097
9.3784714 -10.129252 -2.1322351 0.94566029
9.3485689 -10.132007 -2.1310022 0.94572937
9.3187256 -10.134761 -2.1297698 0.9457981
9.2889843 -10.1375 -2.1285419 0.94586647
9.2592964 -10.140234 -2.1273193 0.94593453
