# .PCD v0.7 - Point Cloud Data file format
VERSION 0.7
FIELDS x y z intensity
SIZE 4 4 4 4
TYPE F F F F
COUNT 1 1 1 1
WIDTH 1139
HEIGHT 1
VIEWPOINT 0 0 0 1 0 0 0
POINTS 1139
DATA ascii
58.707108 9.1879148 8.3044186 0.78663033
58.681824 9.105278 8.3079796 0.78674632
58.65659 9.0227785 8.3115358 0.78686172
58.631386 8.9403954 8.3150816 0.7869767
58.60619 8.8580513 8.3186293 0.78709137
59.021286 8.8418598 8.384696 0.78579122
59.073368 8.7706785 8.3992567 0.78565723
59.125477 8.6994286 8.4138203 0.78552288
59.177704 8.6280813 8.4284201 0.78538787
59.229939 8.5566454 8.4430294 0.78525257
59.576385 8.5272121 8.499609 0.78417498
59.405849 8.4235888 8.4824524 0.78475249
59.236435 8.3206196 8.4653997 0.7853263
60.097206 8.3614597 8.5956602 0.78260463
60.073017 8.2780905 8.599432 0.78271264
60.048874 8.1949072 8.6031942 0.78282022
60.024734 8.1117821 8.6069736 0.78292733
60.000633 8.0287447 8.6107311 0.78303409
59.976589 7.9458346 8.6144753 0.7831403
59.952568 7.8630514 8.6182222 0.78324604
59.928574 7.780376 8.6219635 0.78335136
59.90461 7.6977978 8.625699 0.78345627
59.880672 7.6152682 8.6294174 0.78356075
59.856777 7.5329146 8.6331396 0.7836647
59.83292 7.4506783 8.636858 0.78376824
59.809063 7.3685007 8.6405687 0.78387141
21.058632 -2.6108739 3.4961605 0.91757238
21.047754 -2.6367528 3.496614 0.91759962
21.055849 -2.6650243 3.5002229 0.91755557
67.312706 -22.479076 12.284006 0.74969482
67.072548 -22.493042 12.247119 0.75037384
66.833847 -22.506908 12.210447 0.75104904
66.596619 -22.520639 12.173979 0.75172043
66.360855 -22.534302 12.13774 0.75238788
66.126503 -22.547886 12.101715 0.75305158
65.817085 -22.535141 12.051876 0.75395906
65.481483 -22.512611 11.99719 0.75495285
66.678169 -23.112427 12.230231 0.75089544
66.581261 -23.173012 12.219323 0.75111318
66.484558 -23.233442 12.208454 0.7513302
66.388023 -23.293774 12.197577 0.75154656
65.769142 -23.169878 12.090666 0.75345492
65.695221 -23.237064 12.083875 0.75359905
65.621315 -23.304155 12.077058 0.75374287
65.547516 -23.371138 12.070243 0.75388622
65.473808 -23.438013 12.06343 0.75402915
65.400185 -23.504789 12.056629 0.75417161
65.326599 -23.571518 12.049809 0.75431371
65.253105 -23.638081 12.042984 0.75445545
65.179718 -23.704594 12.036183 0.75459659
65.106377 -23.770971 12.029358 0.7547375
65.033142 -23.83728 12.02255 0.75487781
64.960014 -23.903421 12.015732 0.75501776
64.886909 -23.969564 12.008917 0.75515729
64.813911 -24.03558 12.00211 0.75529635
64.737228 -24.100101 11.994592 0.75544733
64.650009 -24.160542 11.985112 0.75563264
64.663712 -24.258657 11.994332 0.75548726
64.694626 -24.363403 12.006745 0.75528497
64.725616 -24.468393 12.019199 0.75508195
64.756622 -24.5735 12.03163 0.75487846
64.773796 -24.673597 12.041518 0.75471979
64.770309 -24.765825 12.047566 0.75462854
63.292576 -24.292377 11.779238 0.75938976
63.206219 -24.350737 11.769699 0.75957328
63.119911 -24.408998 11.76015 0.75975651
63.033768 -24.467123 11.750616 0.75993913
62.947723 -24.525141 11.741084 0.76012129
62.861755 -24.583042 11.731549 0.76030308
62.775955 -24.640816 11.722025 0.76048428
62.690273 -24.698521 11.712517 0.76066494
62.604694 -24.756029 11.702994 0.76084524
64.564903 -25.625404 12.076099 0.75425506
64.587418 -25.728695 12.086989 0.7540738
64.569893 -25.816128 12.090391 0.75402409
64.552345 -25.903578 12.093779 0.75397414
64.534752 -25.991089 12.097163 0.75392389
64.517166 -26.078627 12.100534 0.75387335
64.499565 -26.166195 12.103909 0.75382239
64.481949 -26.253853 12.107274 0.75377113
64.903419 -26.807974 12.21328 0.75193566
65.10009 -26.985365 12.257034 0.75117403
65.219963 -27.131508 12.286359 0.75066549
56.851883 -23.987427 10.733499 0.77839035
56.525391 -23.933695 10.677709 0.77940744
56.414062 -23.970531 10.66254 0.77968621
56.282146 -23.998295 10.643425 0.78003603
56.094334 -24.001888 10.613728 0.78057867
55.907516 -24.005424 10.584172 0.78111857
55.712498 -24.004927 10.553036 0.78168756
48.930134 -21.155865 9.2734022 0.80538583
48.887566 -21.210707 9.2704086 0.80544227
48.845028 -21.265512 9.2674074 0.80549842
48.802528 -21.320259 9.264411 0.80555427
48.760036 -21.374975 9.2614012 0.80560988
48.717606 -21.429613 9.2584019 0.80566514
48.675117 -21.484262 9.2553816 0.80572027
48.632675 -21.538853 9.2523623 0.80577511
48.590244 -21.593403 9.2493353 0.8058297
48.54784 -21.647915 9.2463036 0.805884
48.505428 -21.702396 9.2432652 0.80593812
48.463055 -21.75684 9.2402353 0.80599189
48.420673 -21.811255 9.2371826 0.80604547
48.37833 -21.86561 9.2341375 0.8060987
48.336006 -21.919947 9.2310934 0.80615169
48.293671 -21.974224 9.2280197 0.80620456
48.251366 -22.028461 9.2249546 0.80625707
48.20908 -22.082689 9.2219019 0.80630928
48.166817 -22.13685 9.2188253 0.80636126
48.12455 -22.190981 9.2157431 0.80641305
48.074627 -22.241528 9.2111835 0.80649227
47.994003 -22.277788 9.2007408 0.80668211
47.913574 -22.313921 9.1903162 0.80687129
47.833221 -22.350023 9.1798925 0.80706012
47.753094 -22.386011 9.1694937 0.80724818
47.673122 -22.4219 9.1591053 0.80743569
47.593319 -22.45772 9.1487398 0.80762261
47.513672 -22.493462 9.1383886 0.80780894
47.434158 -22.529106 9.1280432 0.80799478
47.354824 -22.564692 9.1177197 0.80817997
47.275661 -22.60017 9.1074209 0.80836457
47.196659 -22.635551 9.0971165 0.80854863
47.117744 -22.670912 9.0868416 0.80873215
47.039062 -22.706137 9.0765781 0.80891508
47.445721 -22.976303 9.1600027 0.8073284
47.383934 -23.020189 9.1530342 0.80744815
47.322166 -23.064047 9.1460619 0.80756772
47.260498 -23.107817 9.1390867 0.80768687
47.198875 -23.151537 9.1321115 0.80780566
47.137383 -23.19516 9.1251526 0.80792397
47.075878 -23.238726 9.1181736 0.80804223
47.014519 -23.282221 9.1112185 0.80815983
46.953163 -23.325668 9.1042452 0.80827725
47.137577 -23.491489 9.1449547 0.80749387
47.366993 -23.680483 9.1944284 0.80654526
47.565575 -23.85479 9.2379637 0.80570918
47.651161 -23.973001 9.2595911 0.80528605
47.737186 -24.091822 9.2813263 0.80486065
47.823555 -24.211166 9.303133 0.80443347
47.910313 -24.331089 9.3250437 0.80400431
47.997517 -24.451626 9.3470631 0.80357289
48.085144 -24.572701 9.3691931 0.80313939
48.043282 -24.627836 9.3660841 0.8031795
47.984959 -24.674458 9.3597727 0.80327982
47.900585 -24.707573 9.3483534 0.80347556
47.816032 -24.740366 9.3368855 0.80367213
47.73164 -24.773119 9.3254414 0.80386806
47.647373 -24.805786 9.3139973 0.8040635
48.710255 -25.437281 9.5269079 0.80004472
48.801338 -25.563324 9.5498762 0.79959363
48.892761 -25.689907 9.5729237 0.79914069
48.984726 -25.817152 9.5961056 0.79868519
49.077068 -25.945015 9.6193762 0.79822767
52.859451 -28.030033 10.366333 0.78435665
53.095261 -28.241011 10.418196 0.78337979
53.162216 -28.362749 10.436948 0.78301066
53.012051 -28.368618 10.413074 0.78342372
53.060234 -28.480659 10.428165 0.78312117
53.108582 -28.592983 10.443295 0.78281754
53.157051 -28.705708 10.45847 0.78251278
53.205605 -28.818754 10.473656 0.78220719
53.197578 -28.901323 10.477715 0.78210539
53.186062 -28.982094 10.481097 0.78201574
53.1745 -29.062923 10.484471 0.78192592
53.162888 -29.143784 10.487825 0.78183585
53.15126 -29.224731 10.491176 0.78174543
53.139568 -29.305777 10.494517 0.78165478
27.623144 -15.507924 5.4729452 0.87933302
27.513584 -15.492144 5.4541736 0.87970215
27.404745 -15.476469 5.4355249 0.88006884
27.296581 -15.460894 5.4169898 0.8804332
27.189121 -15.445424 5.3985667 0.88079518
27.082344 -15.430063 5.3802686 0.88115484
27.79248 -15.881157 5.5243163 0.87815481
27.774971 -15.917758 5.5238156 0.8781448
27.75746 -15.95433 5.5233054 0.87813467
27.73996 -15.990912 5.5227966 0.8781243
27.72245 -16.027494 5.5222812 0.87811381
27.704931 -16.064106 5.5217676 0.87810308
27.687391 -16.100727 5.5212464 0.87809223
26.968027 -15.728042 5.3807006 0.88098168
27.652344 -16.173969 5.5202012 0.87806994
27.634794 -16.2106 5.5196729 0.87805855
27.617245 -16.247271 5.5191417 0.87804693
27.599697 -16.28392 5.5186095 0.87803525
27.582148 -16.320591 5.5180726 0.87802327
27.564579 -16.35726 5.5175281 0.87801123
27.547001 -16.39393 5.5169873 0.87799901
27.472647 -16.396753 5.5050635 0.87822217
27.455751 -16.433754 5.5046496 0.87820691
27.438837 -16.470766 5.504221 0.87819153
27.421923 -16.507797 5.5037985 0.87817591
56.80447 -34.293804 11.407276 0.76390761
56.723789 -34.343002 11.397213 0.76404411
46.546062 -28.261459 9.3572989 0.80170965
46.429531 -28.271137 9.3389244 0.80201846
46.313408 -28.280746 9.320591 0.80232614
46.197674 -28.290337 9.3023214 0.80263257
40.653015 -24.965601 8.1902761 0.82397145
40.659286 -25.040308 8.19596 0.82382381
40.665565 -25.11515 8.2016506 0.82367569
40.671844 -25.190121 8.2073593 0.8235271
40.678143 -25.265297 8.2130642 0.82337797
40.684441 -25.340551 8.2187691 0.82322842
40.690781 -25.415981 8.2244997 0.82307822
26.290117 -16.467407 5.3166819 0.88170654
26.250254 -16.488686 5.3114867 0.88178772
26.210419 -16.509947 5.3062987 0.88186866
26.170654 -16.531157 5.3011146 0.88194937
26.130917 -16.552368 5.2959337 0.88202977
26.091269 -16.57354 5.2907591 0.88210988
26.051659 -16.594673 5.2855906 0.88218975
26.012129 -16.615776 5.2804236 0.88226926
25.972616 -16.63685 5.2752638 0.8823486
25.933203 -16.657896 5.2701063 0.88242757
25.893789 -16.67893 5.2649522 0.88250637
25.854443 -16.699926 5.2598023 0.88258487
25.815165 -16.720884 5.2546644 0.88266313
25.775936 -16.741812 5.2495251 0.88274109
25.736757 -16.76273 5.244391 0.88281876
25.697607 -16.783607 5.2392588 0.88289624
25.658564 -16.804447 5.2341318 0.88297331
26.832607 -17.621958 5.4766049 0.8778652
27.250711 -17.945961 5.564961 0.87598962
27.231073 -17.982466 5.563971 0.8759774
27.188778 -18.004019 5.5583496 0.8760615
27.146542 -18.025541 5.5527282 0.8761453
27.104336 -18.047016 5.5471168 0.87622899
27.062216 -18.068472 5.5415125 0.87631226
27.322441 -18.29228 5.5978403 0.87510258
27.334492 -18.350523 5.603364 0.87495285
27.346611 -18.408939 5.6088977 0.87480247
27.35874 -18.467495 5.6144443 0.87465167
27.370907 -18.526226 5.6200061 0.87450016
30.30788 -20.5702 6.2264428 0.86189771
30.160498 -20.52602 6.1995444 0.8624121
30.014277 -20.482172 6.1728525 0.86292261
29.869091 -20.438646 6.1463547 0.86342955
29.725126 -20.395443 6.1200695 0.86393243
28.993847 -19.947807 5.9727745 0.86693996
31.813524 -21.947172 6.5572104 0.85486913
29.955742 -20.721615 6.1776657 0.86262262
24.07662 -16.699955 4.9679604 0.88791585
24.048349 -16.725533 4.9648438 0.88794792
24.020088 -16.751099 4.9617238 0.88797981
23.991835 -16.776636 4.9586096 0.88801157
23.963633 -16.802172 4.9554901 0.88804305
23.93541 -16.8277 4.9523702 0.88807446
23.907206 -16.853218 4.9492521 0.88810563
24.169424 -17.08395 5.006278 0.88685626
24.14415 -17.112036 5.0037875 0.88687319
24.118876 -17.140112 5.0013008 0.88688987
24.093613 -17.168188 4.998807 0.88690645
24.068369 -17.196245 4.9963169 0.88692278
24.043104 -17.224321 4.9938188 0.88693899
24.01787 -17.252378 4.9913273 0.88695496
23.992636 -17.280424 4.9888239 0.88697082
23.967402 -17.308481 4.9863291 0.88698649
23.942177 -17.336529 4.9838271 0.88700199
23.916962 -17.364574 4.9813199 0.88701725
23.891748 -17.392591 4.9788165 0.88703245
23.866552 -17.42062 4.9763126 0.88704741
23.620527 -17.287035 4.9277329 0.8880474
23.816162 -17.476654 4.9712958 0.88707685
23.790976 -17.504673 4.9687867 0.88709128
23.765781 -17.532681 4.9662747 0.88710564
23.740604 -17.560678 4.9637642 0.88711977
23.715429 -17.588686 4.9612427 0.88713366
23.690273 -17.616674 4.9587278 0.88714743
23.665096 -17.644682 4.9562101 0.88716108
23.63994 -17.67267 4.9536905 0.88717449
23.614784 -17.70064 4.9511714 0.88718778
23.589647 -17.728619 4.9486508 0.88720083
23.564501 -17.756596 4.9461203 0.88721377
23.539335 -17.784584 4.9435983 0.88722658
23.514208 -17.812553 4.9410682 0.8872391
23.489111 -17.840502 4.9385395 0.8872515
23.463974 -17.868471 4.9360065 0.88726372
23.438828 -17.89645 4.9334736 0.88727582
23.413731 -17.924389 4.9309421 0.88728768
23.388603 -17.952358 4.9284 0.88729942
23.363504 -17.980297 4.9258657 0.88731098
19.389179 -14.960942 4.0902171 0.90545505
19.353447 -14.972631 4.0849624 0.90553367
19.317762 -14.984341 4.0797243 0.90561193
19.282148 -14.996 4.0744834 0.90569001
19.134638 -14.920346 4.0455794 0.9062894
18.108965 -14.157612 3.8308754 0.91099888
18.08205 -14.173667 3.8273337 0.91104162
18.055176 -14.189702 3.8237948 0.91108418
18.02832 -14.205708 3.8202579 0.91112655
18.001484 -14.221724 3.8167195 0.91116875
17.974707 -14.23772 3.8131857 0.91121072
17.94791 -14.253706 3.8096554 0.91125256
17.921171 -14.269663 3.8061256 0.91129422
17.52039 -13.987006 3.7231131 0.91310608
17.502645 -14.009331 3.721442 0.9131068
17.484882 -14.031655 3.7197702 0.91310745
17.467129 -14.053979 3.7181003 0.91310793
17.449366 -14.076313 3.7164242 0.91310829
17.431601 -14.098638 3.7147474 0.91310853
17.413828 -14.120981 3.7130678 0.91310865
17.396074 -14.143306 3.7113905 0.91310859
17.3783 -14.165649 3.7097104 0.91310841
17.360527 -14.187993 3.7080264 0.91310811
17.342764 -14.210327 3.7063425 0.91310769
17.324989 -14.23269 3.7046559 0.9131071
17.307217 -14.255044 3.7029676 0.91310644
17.061289 -14.088979 3.6524355 0.91420162
17.057577 -14.122485 3.653729 0.91413414
17.053877 -14.156089 3.655026 0.91406626
17.050156 -14.189732 3.6563258 0.91399825
17.046455 -14.223423 3.6576247 0.91392994
17.042725 -14.257192 3.6589267 0.91386139
16.975536 -14.237807 3.6465945 0.9140994
16.992598 -14.289038 3.6523581 0.91393
17.009747 -14.340493 3.6581471 0.91375971
17.026953 -14.392182 3.6639595 0.91358858
17.024023 -14.426938 3.6654403 0.91351479
16.37537 -13.913158 3.5278158 0.91658342
16.176191 -13.779477 3.4869184 0.9174704
16.217432 -13.850347 3.4978323 0.91718376
16.258965 -13.921684 3.508821 0.91689515
16.3008 -13.993569 3.5198855 0.9166044
16.177832 -13.923911 3.4953597 0.91712075
16.221777 -13.997768 3.506891 0.91681892
16.266073 -14.07225 3.5185122 0.91651452
16.310713 -14.14727 3.5302217 0.91620785
16.355713 -14.222935 3.5420253 0.91589862
16.379248 -14.280122 3.5491855 0.91569442
16.379639 -14.3173 3.5513449 0.9156037
16.49287 -14.453462 3.5779872 0.91495609
16.539297 -14.531489 3.5901499 0.91463703
16.530409 -14.561137 3.5903299 0.91459036
16.472998 -14.547944 3.5799582 0.91478342
16.41584 -14.534809 3.569628 0.91497558
16.358934 -14.521733 3.5593452 0.9151668
16.302324 -14.508725 3.5491104 0.91535693
15.708241 -14.01601 3.4217927 0.9182238
15.734286 -14.075385 3.4294882 0.91800547
15.760488 -14.135112 3.4372256 0.91778576
15.786836 -14.195161 3.4450026 0.91756481
15.621445 -14.082603 3.4109347 0.91830325
15.661572 -14.155092 3.4217191 0.91801286
15.701992 -14.2281 3.432579 0.91772032
15.742715 -14.301684 3.4435306 0.91742545
15.783731 -14.375815 3.4545546 0.91712844
15.825078 -14.450532 3.4656723 0.91682905
15.866767 -14.525845 3.476866 0.91652715
15.908779 -14.601713 3.4881461 0.91622299
15.951074 -14.678168 3.499512 0.91591656
15.980331 -14.742866 3.5080264 0.91567522
15.934092 -14.737983 3.4999728 0.91581476
15.887998 -14.7331 3.49194 0.91595376
15.84208 -14.728256 3.483937 0.91609204
15.796309 -14.723403 3.4759598 0.9162299
15.750664 -14.718589 3.4680033 0.91636717
15.705205 -14.713764 3.4600747 0.91650385
16.324228 -15.332993 3.5986252 0.91326141
16.401386 -15.445014 3.6178169 0.91277087
16.303114 -15.39189 3.5983138 0.91317141
15.796542 -14.951919 3.488611 0.91565597
15.8479 -15.039058 3.5020914 0.91529661
16.016768 -15.238315 3.5415456 0.91433555
15.811132 -15.081304 3.4982064 0.91528994
15.783565 -15.093647 3.4942372 0.91533345
15.756025 -15.10599 3.4902644 0.91537678
15.678437 -15.0702 3.4752157 0.91567755
15.644355 -15.076059 3.469764 0.91575485
14.438525 -13.949731 3.2042813 0.9218964
14.417285 -13.964994 3.201534 0.92191494
14.396064 -13.980248 3.1987863 0.92193335
14.374873 -13.995483 3.1960361 0.92195159
14.353652 -14.010727 3.1932876 0.92196977
14.33247 -14.025962 3.1905386 0.92198777
14.311289 -14.041196 3.1877909 0.92200559
14.290107 -14.05642 3.1850424 0.92202342
14.268955 -14.071645 3.1822927 0.92204094
14.247792 -14.08686 3.179544 0.92205846
14.226641 -14.102075 3.1767981 0.92207581
14.205488 -14.117299 3.1740456 0.92209303
14.184355 -14.132495 3.1712976 0.92211014
14.163222 -14.1477 3.1685503 0.92212707
14.14209 -14.162905 3.1658003 0.92214394
14.120986 -14.178101 3.1630509 0.92216063
14.099882 -14.193295 3.1603007 0.9221772
14.078779 -14.208481 3.1575525 0.92219365
14.057675 -14.223667 3.1548042 0.92220998
14.036582 -14.238862 3.1520526 0.92222613
14.015517 -14.254038 3.1493061 0.92224216
13.994433 -14.269194 3.1465566 0.9222582
13.973339 -14.284389 3.1438065 0.92227399
13.952305 -14.299545 3.1410556 0.92228961
13.382236 -13.75059 3.0146265 0.92524952
13.394326 -13.798442 3.019273 0.92509061
13.406474 -13.846528 3.0239344 0.92493087
13.418691 -13.89481 3.0286188 0.92477024
13.430957 -13.943335 3.0333242 0.92460883
13.443291 -13.992094 3.0380511 0.92444652
13.455664 -14.041059 3.0427988 0.92428344
13.468124 -14.090268 3.0475655 0.92411941
13.480625 -14.139702 3.0523584 0.92395455
13.493193 -14.18938 3.0571713 0.92378879
13.50582 -14.239282 3.062005 0.92362225
13.518516 -14.289438 3.0668619 0.9234547
13.531279 -14.339828 3.0717418 0.92328626
13.544082 -14.390444 3.0766444 0.92311704
13.556952 -14.441313 3.0815701 0.92294687
13.551758 -14.473101 3.0823958 0.92287475
13.543476 -14.501587 3.0825164 0.92281938
13.535166 -14.530141 3.082634 0.92276388
13.526855 -14.558744 3.0827541 0.92270803
13.518516 -14.587398 3.0828753 0.92265207
13.510176 -14.616108 3.0829937 0.9225958
13.501816 -14.644848 3.0831103 0.92253941
13.493447 -14.673647 3.0832262 0.92248279
13.124023 -14.308872 3.0007977 0.9244222
12.307461 -13.453364 2.8159554 0.9288581
12.342173 -13.52623 2.8257599 0.92856908
12.377163 -13.599751 2.8356543 0.92827749
12.412471 -13.673911 2.8456311 0.92798334
12.309483 -13.595615 2.8238986 0.92846233
12.346943 -13.672368 2.8343813 0.9281553
12.384687 -13.749784 2.8449523 0.92784566
12.422836 -13.827949 2.855623 0.92753291
12.461318 -13.906811 2.8663921 0.92721742
12.500151 -13.986391 2.8772562 0.92689902
12.539355 -14.066768 2.8882267 0.92657751
12.578936 -14.147871 2.899297 0.92625302
12.570557 -14.175229 2.8993208 0.92619842
12.530068 -14.166357 2.8919411 0.9263252
12.489707 -14.157515 2.8845837 0.9264515
12.449502 -14.148705 2.8772521 0.92657715
12.409424 -14.139927 2.8699439 0.92670238
12.369482 -14.131171 2.8626552 0.92682701
12.329668 -14.122456 2.8553991 0.92695117
12.289995 -14.113745 2.8481593 0.92707485
12.250444 -14.105083 2.8409438 0.92719805
12.211016 -14.09645 2.8337526 0.92732066
11.903139 -13.776948 2.7642043 0.92898571
11.924033 -13.837236 2.7709744 0.9287641
11.945078 -13.897944 2.7777853 0.92854095
11.966249 -13.959043 2.7846386 0.92831624
11.987577 -14.020556 2.7915432 0.92808998
12.009028 -14.082476 2.7984874 0.92786217
12.030654 -14.144819 2.8054819 0.92763269
11.792348 -13.90104 2.7518349 0.92891097
11.827451 -13.979009 2.7619579 0.92860347
11.8629 -14.057763 2.7721863 0.92829287
11.898666 -14.137217 2.7825038 0.92797953
11.934771 -14.217412 2.7929132 0.92766321
11.971231 -14.298374 2.803427 0.9273439
12.008022 -14.380097 2.814033 0.92702156
12.01706 -14.428823 2.8181489 0.92686087
12.013369 -14.462441 2.8192885 0.92677408
12.009678 -14.496152 2.8204346 0.926687
12.005977 -14.529922 2.8215773 0.92659962
12.002246 -14.563813 2.8227229 0.92651188
11.998515 -14.597778 2.823875 0.92642385
11.994785 -14.631821 2.8250263 0.92633545
11.991035 -14.665986 2.8261807 0.92624664
11.987275 -14.700214 2.8273351 0.92615759
11.961582 -14.707587 2.8233185 0.9261983
11.935273 -14.714155 2.8191543 0.92624265
11.908979 -14.720713 2.8149903 0.92628688
11.882719 -14.727265 2.8108308 0.92633098
11.856489 -14.733798 2.806675 0.92637491
11.728364 -14.613369 2.7783852 0.92702878
11.804091 -14.746865 2.7983775 0.92646229
11.777939 -14.753379 2.7942307 0.92650574
11.751811 -14.759877 2.7900853 0.92654908
11.725693 -14.766381 2.7859471 0.92659223
11.699624 -14.772876 2.7818127 0.92663521
11.673584 -14.779346 2.7776797 0.92667812
11.647553 -14.78583 2.7735522 0.9267208
11.621548 -14.792299 2.7694266 0.92676336
11.595576 -14.798755 2.7653055 0.92680573
11.569629 -14.8052 2.7611868 0.92684799
11.543711 -14.811641 2.7570693 0.92689008
11.517802 -14.818081 2.7529604 0.92693198
11.491933 -14.824502 2.7488496 0.92697382
11.466074 -14.830928 2.7447412 0.92701542
11.440248 -14.837343 2.7406397 0.92705691
11.414457 -14.84374 2.7365408 0.92709827
11.388681 -14.850142 2.7324464 0.92713946
11.362929 -14.856538 2.7283547 0.92718047
11.337202 -14.8629 2.7242632 0.92722142
11.31148 -14.869282 2.7201724 0.92726219
11.28582 -14.875644 2.7160912 0.92730272
11.260156 -14.882016 2.7120147 0.92734313
11.234526 -14.888354 2.7079353 0.92738348
11.208925 -14.894702 2.7038627 0.9274236
11.381104 -15.164536 2.7475297 0.92622942
11.359287 -15.176577 2.7444079 0.92624372
11.33747 -15.188618 2.7412822 0.92625791
11.315669 -15.200673 2.7381549 0.92627192
11.293862 -15.212709 2.7350299 0.92628586
11.27207 -15.224751 2.7319047 0.92629963
11.260268 -15.250307 2.7312059 0.92625034
11.232988 -15.254927 2.726752 0.92629844
11.069902 -15.074555 2.6892986 0.92720592
11.178525 -15.264126 2.7178521 0.92639416
11.151338 -15.268705 2.7134087 0.92644185
11.124165 -15.273315 2.7089694 0.92648923
11.097051 -15.27789 2.7045379 0.9265365
11.069942 -15.282455 2.7001061 0.92658371
11.042881 -15.287026 2.6956804 0.92663062
11.015854 -15.291587 2.6912613 0.92667735
10.988837 -15.296143 2.6868443 0.92672402
10.961845 -15.300693 2.6824279 0.92677051
10.934916 -15.305234 2.6780221 0.92681676
10.907998 -15.309765 2.673619 0.9268629
10.881118 -15.314292 2.6692183 0.92690885
10.854239 -15.318832 2.6648233 0.92695463
10.827412 -15.323344 2.6604331 0.92700028
10.800605 -15.327856 2.6560421 0.92704576
10.773828 -15.332363 2.6516571 0.92709112
10.356035 -14.778789 2.5509539 0.92969209
10.349135 -14.810112 2.5513871 0.92961192
10.342231 -14.841503 2.5518193 0.92953146
10.335307 -14.872973 2.552253 0.92945069
10.328354 -14.904531 2.5526896 0.92936963
10.321406 -14.936157 2.5531235 0.92928821
10.314424 -14.967891 2.5535619 0.92920643
10.307412 -14.999697 2.5540004 0.92912441
10.30041 -15.031582 2.5544367 0.92904204
10.293369 -15.063549 2.5548761 0.92895931
10.286318 -15.09561 2.5553157 0.92887628
10.279253 -15.127729 2.5557568 0.92879295
10.262617 -15.145869 2.5538187 0.92877311
10.265054 -15.192275 2.5566409 0.92862523
10.257925 -15.224672 2.5570791 0.92854089
10.250781 -15.257168 2.5575249 0.92845613
10.243623 -15.289726 2.5579677 0.92837113
10.236441 -15.322383 2.5584149 0.92828578
9.6116209 -14.428018 2.4043643 0.93238509
9.6108789 -14.467974 2.4062989 0.93226272
9.6101313 -14.508076 2.4082375 0.93213981
9.6093941 -14.548354 2.4101877 0.93201625
9.6086473 -14.588799 2.4121442 0.9318921
9.6079102 -14.629384 2.4141097 0.9317674
9.6071482 -14.670141 2.4160798 0.93164212
9.429678 -14.440425 2.3735759 0.9327327
9.432436 -14.486147 2.3764102 0.93258417
9.435215 -14.532089 2.3792574 0.9324348
9.4380074 -14.578242 2.3821182 0.93228459
9.440815 -14.624629 2.3849959 0.93213362
9.4436378 -14.671245 2.3878832 0.9319818
9.4464645 -14.718081 2.3907862 0.93182915
9.4493113 -14.765146 2.3937035 0.93167567
9.4521723 -14.812431 2.3966305 0.93152142
9.226079 -14.500072 2.3414614 0.93297142
9.211318 -14.518974 2.3398857 0.93294251
9.1965332 -14.537895 2.338304 0.93291342
9.1817379 -14.556835 2.3367221 0.93288428
9.1669378 -14.575781 2.3351376 0.93285495
9.1521091 -14.594766 2.3335516 0.93282545
9.13727 -14.613759 2.3319614 0.93279582
9.122407 -14.632788 2.3303704 0.93276608
9.1075344 -14.651831 2.3287761 0.93273616
9.0926466 -14.670888 2.3271849 0.93270612
9.077734 -14.68996 2.3255837 0.93267596
9.0628071 -14.709077 2.3239849 0.93264556
9.0478611 -14.728208 2.3223853 0.9326151
9.0328999 -14.747348 2.320781 0.93258446
9.01791 -14.766528 2.3191762 0.93255371
9.0029202 -14.785717 2.3175662 0.93252277
8.9879103 -14.804927 2.3159554 0.93249172
8.9728804 -14.824164 2.3143461 0.93246049
8.9578314 -14.843423 2.3127306 0.93242913
8.9427538 -14.862704 2.3111153 0.93239766
8.9276752 -14.882007 2.3094971 0.93236601
8.9125586 -14.901352 2.3078766 0.93233413
8.8974409 -14.920693 2.3062553 0.93230218
8.8823042 -14.940059 2.3046296 0.93227011
8.8671532 -14.959453 2.3030026 0.93223786
8.8519773 -14.978877 2.3013732 0.93220544
8.8367767 -14.99832 2.2997415 0.93217289
8.8215723 -15.017783 2.2981098 0.93214017
8.8063421 -15.037271 2.2964737 0.93210733
8.7910833 -15.056782 2.2948363 0.93207431
8.7757959 -15.076338 2.2931964 0.93204111
8.7605171 -15.095883 2.291553 0.93200785
8.7452049 -15.115468 2.2899084 0.93197441
8.7298927 -15.135077 2.2882628 0.93194073
8.7145405 -15.154721 2.2866168 0.93190694
8.6991892 -15.174356 2.2849617 0.93187302
8.6837893 -15.194042 2.2833087 0.93183899
8.6683836 -15.213764 2.281656 0.93180466
8.6529684 -15.233491 2.2799976 0.93177027
8.6375189 -15.253252 2.2783389 0.93173569
8.6220551 -15.273027 2.2766771 0.931701
8.6065722 -15.292842 2.2750103 0.93166614
8.591074 -15.312661 2.2733452 0.93163115
8.5755568 -15.332509 2.2716742 0.93159598
8.56001 -15.352397 2.2700033 0.93156058
8.5444431 -15.372314 2.2683327 0.93152505
8.5288668 -15.392236 2.2666552 0.93148941
8.513257 -15.412207 2.2649801 0.93145359
8.1353121 -14.774189 2.1667955 0.93424344
8.1309958 -14.812783 2.1680276 0.93412524
8.1266651 -14.851508 2.1692662 0.93400651
8.1021776 -14.853472 2.1651261 0.93404555
8.105093 -14.905806 2.1683164 0.93386859
8.108037 -14.958442 2.1715271 0.93369049
8.1091795 -15.008018 2.1742644 0.93352568
8.1047602 -15.047539 2.17553 0.93340397
8.1003218 -15.087226 2.1767969 0.93328172
8.0958691 -15.12705 2.1780691 0.93315893
8.0914059 -15.16705 2.1793458 0.93303549
8.0869141 -15.207207 2.1806293 0.93291152
7.8547215 -14.818017 2.1204488 0.93461692
7.8987985 -14.949092 2.1348083 0.9341042
7.9435983 -15.082329 2.1494021 0.93358314
7.9891453 -15.217788 2.1642363 0.93305361
8.0354881 -15.355649 2.1793358 0.93251491
8.0595942 -15.45165 2.1884363 0.93215454
8.0549707 -15.492973 2.1897559 0.93202627
8.0503368 -15.534472 2.1910813 0.93189728
8.0456839 -15.576142 2.1924124 0.9317677
8.0410061 -15.618003 2.1937497 0.93163741
8.0363083 -15.660029 2.1950934 0.93150651
8.0315914 -15.702216 2.1964428 0.93137509
7.846611 -15.391054 2.1484387 0.93273365
7.8228464 -15.395073 2.1445329 0.93276209
7.7991114 -15.399072 2.1406281 0.93279046
7.7754102 -15.403076 2.1367257 0.93281859
7.751699 -15.40707 2.1328268 0.93284672
7.7280025 -15.411078 2.1289275 0.93287462
7.7043262 -15.415078 2.1250341 0.9329024
7.6806836 -15.419072 2.12114 0.93293005
7.6570263 -15.423061 2.1172519 0.93295759
7.6333933 -15.427055 2.1133621 0.93298501
7.6097751 -15.431045 2.109479 0.93301225
7.5861716 -15.435034 2.1055968 0.93303937
7.5625877 -15.439018 2.1017172 0.93306637
7.5390182 -15.442998 2.0978374 0.93309325
7.515449 -15.446987 2.0939658 0.93311995
7.4919138 -15.450952 2.0900912 0.9331466
7.4683785 -15.454926 2.0862224 0.93317306
7.4448533 -15.458911 2.0823529 0.93319941
7.4213476 -15.46288 2.0784869 0.93322563
7.3978562 -15.466846 2.0746253 0.93325174
7.3743844 -15.47081 2.0707641 0.93327767
7.3509178 -15.474775 2.0669053 0.93330348
7.3274703 -15.47874 2.0630507 0.93332916
7.3040328 -15.482699 2.0591946 0.93335474
7.2806149 -15.486655 2.0553434 0.93338019
7.2571969 -15.49061 2.0514941 0.93340552
7.2338085 -15.49456 2.0476472 0.93343067
7.2104244 -15.498506 2.0438035 0.93345577
7.1870508 -15.50246 2.0399618 0.93348068
6.9105515 -14.958457 1.9641711 0.93577802
6.8956738 -14.978891 1.9626455 0.93573284
6.8807859 -14.999346 1.961116 0.9356876
6.865859 -15.019843 1.9595901 0.93564206
6.8509226 -15.040351 1.9580563 0.93559647
6.8359423 -15.060927 1.9565213 0.93555057
6.8209472 -15.081513 1.9549823 0.93550456
6.8059225 -15.102158 1.953446 0.9354583
6.790874 -15.122827 1.9519037 0.93541187
6.6318846 -14.821889 1.9089336 0.93669367
6.6201267 -14.848979 1.9082931 0.93661976
6.6083398 -14.876138 1.9076507 0.93654549
6.5965281 -14.903364 1.9070022 0.93647099
6.5846729 -14.930669 1.9063574 0.93639618
6.572793 -14.958047 1.9057077 0.93632108
6.5608788 -14.985497 1.9050577 0.93624562
6.5489306 -15.013027 1.9044076 0.93616986
6.5369577 -15.040615 1.9037558 0.93609387
6.5249362 -15.0683 1.9031012 0.93601745
6.5129004 -15.096049 1.9024447 0.9359408
6.5008349 -15.123862 1.901787 0.93586379
6.4887257 -15.151757 1.9011279 0.93578655
6.4765768 -15.17975 1.9004669 0.93570882
6.4644041 -15.207808 1.8998061 0.93563092
6.4521923 -15.235951 1.8991473 0.9355526
6.439961 -15.264145 1.8984771 0.93547404
6.4276757 -15.292426 1.8978109 0.93539512
6.4153805 -15.320801 1.8971423 0.93531585
6.4030271 -15.349238 1.8964703 0.93523633
6.3906541 -15.377769 1.8958026 0.9351564
6.378252 -15.406367 1.8951293 0.93507612
6.3658009 -15.435054 1.8944552 0.93499559
6.3533201 -15.463823 1.8937774 0.93491465
6.3407907 -15.492671 1.8930993 0.93483341
6.3282518 -15.521602 1.8924203 0.93475181
6.3156543 -15.55063 1.8917401 0.93466985
6.3030319 -15.579726 1.8910571 0.93458754
6.2903709 -15.608901 1.8903726 0.93450499
6.2776856 -15.638164 1.8896887 0.93442202
6.2649512 -15.667504 1.8889999 0.93433869
6.2521825 -15.696943 1.8883102 0.934255
6.2393847 -15.72646 1.8876196 0.93417102
6.2265429 -15.756069 1.8869299 0.93408662
6.2136621 -15.785747 1.8862338 0.93400192
6.1488867 -15.683237 1.8697671 0.93445104
6.1877832 -15.845395 1.8848394 0.93383139
6.1747947 -15.875341 1.88414 0.93374562
6.1559472 -15.890347 1.8816617 0.93371999
6.1347117 -15.899238 1.878454 0.93371898
5.978086 -15.555805 1.8337139 0.93513709
5.9579101 -15.566137 1.830766 0.93512928
5.9377441 -15.57646 1.8278185 0.93512142
5.8573728 -15.428242 1.8063092 0.93575174
5.8424511 -15.451865 1.8049514 0.93568975
5.8274999 -15.475522 1.8035944 0.93562758
5.8125 -15.499268 1.8022305 0.93556511
5.7974901 -15.523042 1.800866 0.93550235
5.7824268 -15.54687 1.7995013 0.93543941
5.7673435 -15.570766 1.7981308 0.93537617
5.7522264 -15.594707 1.7967575 0.93531269
5.7370605 -15.618696 1.795382 0.93524897
5.7218652 -15.642754 1.7940054 0.93518496
5.7066407 -15.66686 1.7926251 0.93512076
5.6913767 -15.691025 1.7912436 0.93505621
5.6745896 -15.711108 1.7893847 0.93500799
5.6542625 -15.721503 1.7864194 0.93499845
5.6339355 -15.731904 1.7834536 0.93498874
5.613584 -15.742324 1.7804849 0.9349789
5.5932422 -15.752739 1.7775186 0.93496895
5.5728807 -15.763154 1.7745486 0.93495888
5.5525045 -15.773593 1.7715746 0.93494862
5.5321093 -15.784023 1.7686054 0.93493837
5.5117188 -15.794467 1.7656299 0.93492788
5.4913135 -15.804902 1.7626556 0.93491739
5.2365379 -15.137846 1.6842974 0.93760628
5.2261863 -15.174619 1.6844171 0.93748921
5.2130027 -15.203403 1.6836358 0.93740398
5.2051072 -15.247866 1.684577 0.93725622
5.1949024 -15.285859 1.6847848 0.93713433
5.3578467 -15.835961 1.7412857 0.93497741
5.3276367 -15.817441 1.7351288 0.93508106
5.2974997 -15.798974 1.7289883 0.93518424
5.2674608 -15.780557 1.7228656 0.93528706
5.2375293 -15.762212 1.7167691 0.9353894
5.2076559 -15.743901 1.7106808 0.93549138
5.1778955 -15.725658 1.7046185 0.93559295
5.1482325 -15.70747 1.6985748 0.93569404
5.1186423 -15.689341 1.6925488 0.93579477
5.0891356 -15.67126 1.6865381 0.93589509
5.0597167 -15.653247 1.6805524 0.93599498
5.030405 -15.635268 1.6745782 0.93609446
5.0011768 -15.617353 1.6686255 0.93619353
4.9720263 -15.599497 1.6626931 0.93629223
4.9429688 -15.581684 1.6567755 0.93639052
4.9139795 -15.563935 1.6508749 0.93648839
5.029912 -16.007114 1.6937606 0.93476862
5.0149608 -16.035995 1.6926886 0.93468314
4.9999509 -16.064945 1.6916162 0.93459737
4.9558692 -16.000191 1.6806848 0.93488014
4.9324021 -16.001646 1.6767322 0.93490225
4.6905956 -15.291313 1.5983801 0.93772656
4.6827245 -15.340278 1.5995638 0.93755996
4.6747899 -15.389589 1.6007626 0.93739212
4.6668162 -15.439136 1.6019632 0.93722337
4.6587987 -15.488984 1.603175 0.93705356
4.6507421 -15.539135 1.604396 0.93688256
4.6426268 -15.589575 1.6056225 0.93671054
4.6344628 -15.640307 1.6068579 0.93653744
4.6262598 -15.691338 1.6080972 0.93636322
4.6179981 -15.742695 1.6093488 0.9361878
4.6096973 -15.794365 1.6106082 0.93601125
4.6013474 -15.846318 1.6118731 0.93583363
4.5929394 -15.898574 1.6131473 0.93565488
4.5006981 -15.659678 1.5849255 0.93661582
4.4817772 -15.674604 1.5824587 0.93658268
4.4628077 -15.689565 1.5799878 0.93654931
4.4438181 -15.704546 1.5775141 0.93651581
4.4248195 -15.719541 1.5750353 0.93648213
4.405786 -15.73456 1.5725589 0.93644828
4.3867283 -15.74959 1.570076 0.9364143
4.3676462 -15.764648 1.5675915 0.93638015
4.3485255 -15.779741 1.565105 0.93634576
4.3293848 -15.794844 1.5626129 0.9363113
4.3102198 -15.809965 1.5601196 0.93627661
4.2153807 -15.546152 1.5301641 0.93732971
4.2718263 -15.840268 1.5551248 0.93620682
4.2525878 -15.855458 1.5526235 0.93617165
4.2333102 -15.870668 1.5501187 0.93613631
4.214004 -15.885908 1.5476125 0.93610078
4.1946778 -15.901172 1.5451034 0.93606508
4.1753321 -15.91643 1.5425888 0.93602931
4.1559472 -15.931738 1.5400729 0.93599325
4.1365428 -15.94705 1.5375513 0.93595713
4.1171141 -15.962398 1.5350326 0.93592072
4.0976562 -15.977758 1.5325055 0.93588424
4.0781589 -15.993149 1.529978 0.93584752
4.0586472 -16.008558 1.5274481 0.93581069
4.0390916 -16.023998 1.5249133 0.93577361
4.0195265 -16.039454 1.522377 0.93573636
3.9999316 -16.054922 1.5198386 0.93569905
3.9803026 -16.070429 1.5172964 0.93566144
3.9606347 -16.085957 1.5147485 0.93562371
3.9409473 -16.1015 1.512199 0.9355858
3.9212353 -16.117069 1.5096459 0.93554771
4.0526905 -16.757938 1.5655056 0.93309546
4.0264158 -16.750322 1.5606261 0.93314749
4.0001855 -16.74272 1.5557556 0.93319935
3.9739842 -16.735136 1.5508908 0.93325096
3.9478221 -16.727558 1.5460358 0.9333024
3.9216893 -16.719995 1.5411865 0.93335366
3.8956053 -16.712437 1.5363455 0.93340474
3.8695507 -16.704903 1.5315127 0.93345559
3.8435254 -16.697363 1.5266843 0.93350625
3.8175244 -16.689848 1.5218633 0.93355674
3.7915673 -16.682343 1.5170517 0.93360698
3.7498729 -16.604931 1.5059075 0.93392587
3.6964355 -16.474243 1.4899807 0.93444932
3.643584 -16.344395 1.4741989 0.93496943
3.6265233 -16.374443 1.4728701 0.93487436
3.6623192 -16.64497 1.4930956 0.93385553
3.6365526 -16.637539 1.4883237 0.93390459
3.5642188 -16.4154 1.4644067 0.93477786
3.5400293 -16.413496 1.4601947 0.93480521
3.5158691 -16.411596 1.4559847 0.93483239
3.5338817 -16.607891 1.469313 0.9340992
3.508291 -16.600502 1.4645789 0.93414742
3.4827294 -16.593134 1.4598483 0.93419534
3.457202 -16.585766 1.4551257 0.9342432
3.3957715 -16.40477 1.435219 0.93495613
3.1212695 -15.184643 1.324746 0.93966252
3.1012011 -15.193715 1.3218122 0.93964529
3.0811083 -15.202803 1.3188748 0.93962783
3.0610008 -15.211899 1.3159389 0.9396103
3.040869 -15.220991 1.3129981 0.93959266
3.0207226 -15.230117 1.3100539 0.93957478
3.0005615 -15.239223 1.30711 0.9395569
2.9803808 -15.248349 1.304166 0.93953884
2.9601855 -15.257495 1.3012201 0.9395206
2.9399755 -15.266621 1.29827 0.93950236
2.9197314 -15.275785 1.295318 0.93948382
2.8994775 -15.284956 1.2923669 0.93946522
2.8792088 -15.294121 1.2894123 0.93944651
2.8589306 -15.303306 1.2864566 0.93942761
2.8265526 -15.247377 1.2780377 0.93965834
2.8041503 -15.244736 1.2741042 0.93968451
2.7817578 -15.242099 1.2701739 0.93971056
2.7593749 -15.239463 1.2662469 0.93973649
2.6683936 -14.854819 1.230675 0.9412272
2.6500487 -14.871592 1.228447 0.94117808
2.6316552 -14.888393 1.226218 0.94112873
2.6132519 -14.905214 1.2239853 0.94107926
2.5947948 -14.92209 1.2217511 0.94102943
2.5762987 -14.939004 1.2195092 0.94097942
2.5577686 -14.955937 1.2172641 0.94092929
2.5392041 -14.972905 1.2150159 0.94087887
2.5205956 -14.989922 1.2127652 0.94082826
2.5019629 -15.006948 1.2105056 0.94077748
2.4832764 -15.024033 1.2082486 0.9407264
2.4645605 -15.041147 1.2059841 0.94067514
2.4458008 -15.058286 1.2037174 0.9406237
2.4270067 -15.075473 1.201445 0.94057196
2.3743799 -14.880913 1.1823441 0.94132966
2.3565819 -14.903061 1.1805029 0.94125861
2.3387499 -14.925254 1.1786584 0.94118726
2.3208544 -14.94751 1.1768091 0.94111562
2.3029003 -14.969858 1.1749561 0.94104356
2.2849023 -14.992246 1.1730987 0.94097126
2.2668653 -15.014697 1.1712363 0.94089866
2.2487743 -15.037202 1.1693667 0.94082576
2.2306249 -15.059785 1.167496 0.94075257
2.2124317 -15.082431 1.1656197 0.94067895
2.1941893 -15.105131 1.1637393 0.9406051
2.1758788 -15.12791 1.1618545 0.9405309
2.1575196 -15.150746 1.1599655 0.94045639
2.1381493 -15.166748 1.1575437 0.94040787
2.1161425 -15.16418 1.1537033 0.94042999
2.0941455 -15.161616 1.149865 0.94045192
2.0721483 -15.159062 1.1460303 0.94047374
2.0501709 -15.156504 1.1421994 0.94049543
2.0282128 -15.153935 1.1383694 0.94051701
2.0062549 -15.151381 1.1345446 0.94053847
1.9843066 -15.148832 1.1307214 0.94055974
1.962373 -15.146289 1.1269013 0.9405809
1.9404491 -15.143735 1.1230817 0.940602
1.9185351 -15.141181 1.1192664 0.94062293
1.8966405 -15.138647 1.1154535 0.94064367
1.8747412 -15.136098 1.1116439 0.94066441
1.8528711 -15.133554 1.1078351 0.94068491
1.8309814 -15.131015 1.1040301 0.94070536
1.8565674 -15.525229 1.1290817 0.93921936
1.8372852 -15.549218 1.1271087 0.93913913
1.8179492 -15.573281 1.1251346 0.9390586
1.7985449 -15.597431 1.1231503 0.93897766
1.7790868 -15.62164 1.121164 0.93889636
1.7595702 -15.645927 1.1191733 0.9388147
1.7399951 -15.670283 1.117175 0.93873274
1.7203565 -15.694721 1.1151718 0.93865031
1.7006592 -15.719228 1.1131641 0.93856764
1.6808984 -15.743814 1.1111511 0.93848449
1.6593847 -15.752338 1.1079986 0.93846208
1.6310155 -15.695064 1.1002295 0.93868852
1.6028515 -15.638188 1.0925156 0.93891329
1.7495264 -17.309677 1.205166 0.93261927
1.685371 -16.913017 1.1735226 0.93412131
1.6660448 -16.961342 1.1728379 0.93394929
1.6466162 -17.009907 1.1721512 0.93377638
1.6270703 -17.058794 1.1714581 0.93360221
1.6074121 -17.107929 1.170765 0.93342704
1.5876465 -17.157349 1.1700671 0.93325078
1.5283399 -16.774408 1.1399704 0.93469995
1.5146776 -16.888222 1.1436881 0.93428087
1.5008301 -17.00354 1.147457 0.93385631
1.486792 -17.120474 1.1512786 0.93342584
1.4725586 -17.239027 1.1551605 0.93298954
1.4581201 -17.359234 1.1590887 0.93254715
1.4358984 -17.389179 1.1569635 0.9324435
1.4113379 -17.39142 1.1529862 0.93244362
1.3860742 -17.384722 1.1484189 0.93247712
1.3608056 -17.378036 1.1438565 0.93251044
1.3388379 -17.413813 1.1420803 0.93238449
1.3145263 -17.419981 1.1383544 0.93236935
1.2260253 -16.559467 1.078197 0.93560767
1.1998974 -16.524076 1.0719773 0.93574816
1.173872 -16.488817 1.0657855 0.93588799
1.1479639 -16.45372 1.0596173 0.93602705
1.1221533 -16.41877 1.0534784 0.93616545
1.09646 -16.383945 1.0473654 0.93630326
1.0708691 -16.349297 1.041279 0.93644029
1.0453955 -16.314779 1.0352185 0.9365766
1.0200293 -16.280386 1.0291852 0.93671238
0.99476069 -16.246166 1.0231777 0.93684739
0.96959472 -16.212074 1.0171942 0.93698174
0.9445312 -16.178114 1.0112371 0.93711549
0.91957515 -16.144287 1.0053076 0.93724859
0.97780269 -17.606415 1.0921903 0.93176991
0.95662105 -17.678339 1.092472 0.93150705
0.93525875 -17.750864 1.0927603 0.93124193
0.91027343 -17.756245 1.0888944 0.93122768
0.89078122 -17.872583 1.0918061 0.93079877
0.86386716 -17.842529 1.0857546 0.93091661
0.83704591 -17.812563 1.0797272 0.93103397
0.81031734 -17.782684 1.0737137 0.93115085
0.78366208 -17.752924 1.0677246 0.9312672
0.75710446 -17.723257 1.0617568 0.93138301
0.7306152 -17.693676 1.0558065 0.93149841
0.66188961 -16.602089 0.98675197 0.93558973
0.63850099 -16.609325 0.98326141 0.9355669
0.61508787 -16.616571 0.97977048 0.93554395
0.59166014 -16.623823 0.97627407 0.93552083
0.56820309 -16.631079 0.97277766 0.93549752
0.54277343 -16.578608 0.96579987 0.93569815
0.51926756 -16.583046 0.96214539 0.93568522
0.4957324 -16.587475 0.95849055 0.9356721
0.47220701 -16.591919 0.95483547 0.93565887
0.44864744 -16.596376 0.95117706 0.93564546
0.42508787 -16.600821 0.94751889 0.93563193
0.39830565 -16.473724 0.93638027 0.93611169
0.37469727 -16.469629 0.93226594 0.93612993
0.35109374 -16.465532 0.92815214 0.93614805
0.32749024 -16.461439 0.92404294 0.93616605
0.30390137 -16.457354 0.91993529 0.93618387
0.27723143 -16.271494 0.90571046 0.93688369
0.23966308 -15.354198 0.85103393 0.94033551
0.21745604 -15.335273 0.84637237 0.94040883
0.19528808 -15.316401 0.84172207 0.94048178
0.17318359 -15.297564 0.8370834 0.9405545
0.15380859 -15.55121 0.84729916 0.93960083
0.13153321 -15.545966 0.84334928 0.9396221
0.10925293 -15.540717 0.83940613 0.93964326
0.086987302 -15.535479 0.83546323 0.93966424
0.064726561 -15.530239 0.83152282 0.93968511
0.042470701 -15.525004 0.82758546 0.93970579
0.020239258 -15.519771 0.82365263 0.93972641
-0.0019726562 -15.514531 0.81972015 0.93974692
-0.025385741 -16.268414 0.85572267 0.93691409
-0.048686523 -16.268179 0.8518759 0.93691552
-0.072011717 -16.267948 0.84803498 0.93691683
-0.095332026 -16.26771 0.84419036 0.93691802
-0.11865234 -16.267481 0.84034663 0.93691903
-0.14199218 -16.267246 0.83650571 0.93691993
-0.16531739 -16.267012 0.83266234 0.93692076
-0.18866698 -16.266783 0.82881898 0.93692136
-0.21201171 -16.266542 0.82497525 0.93692195
-0.23536621 -16.266317 0.82113552 0.93692231
-0.2587207 -16.266083 0.8172937 0.93692255
-0.2820752 -16.26585 0.81344938 0.93692273
-0.30546385 -16.265615 0.80960721 0.93692273
-0.32883301 -16.265385 0.80576414 0.93692261
-0.35222167 -16.265156 0.80192107 0.93692231
-0.37560546 -16.264917 0.79808015 0.93692195
-0.39899901 -16.264687 0.79423612 0.93692148
-0.42240232 -16.264452 0.7903958 0.93692082
-0.44581053 -16.264238 0.78655392 0.93691999
-0.46921873 -16.264008 0.78270841 0.93691909
-0.4926416 -16.263775 0.77886748 0.93691802
-0.51607418 -16.26354 0.77502561 0.93691689
-0.53950685 -16.263319 0.77118134 0.93691558
-0.56295407 -16.26309 0.76734066 0.93691415
-0.58640623 -16.262856 0.76349545 0.9369126
-0.60986328 -16.262627 0.75965148 0.93691087
-0.63333493 -16.262411 0.75580901 0.93690902
-0.65679687 -16.262182 0.75196594 0.93690705
-0.68028319 -16.261953 0.74812013 0.93690497
-0.70377439 -16.261728 0.74427825 0.9369027
-0.7272656 -16.261499 0.74043274 0.93690038
-0.75076658 -16.261274 0.73658723 0.93689787
-0.77427733 -16.261045 0.73274505 0.93689525
-0.79780275 -16.260824 0.72889769 0.93689245
-0.82133788 -16.260595 0.72505337 0.93688959
-0.84477538 -16.25878 0.72113645 0.93689251
-0.86840332 -16.260145 0.71736115 0.93688339
-0.89196289 -16.259926 0.71351469 0.93688005
-0.91552734 -16.259703 0.70966703 0.93687665
-0.9390918 -16.259478 0.70582092 0.93687308
-0.96267086 -16.259253 0.70197201 0.93686938
-0.98627442 -16.259033 0.69812375 0.93686557
-1.0098633 -16.258808 0.69427669 0.93686157
-1.0334668 -16.258583 0.6904251 0.93685752
-1.0570898 -16.258348 0.68657589 0.93685335
-1.1441602 -17.212622 0.72280729 0.93326789
-1.1691992 -17.212772 0.7187497 0.93326169
-1.2949609 -18.664141 0.77494353 0.92783606
-1.3208154 -18.645576 0.76976407 0.92789882
-1.3466308 -18.627016 0.76459622 0.92796141
-1.372417 -18.608511 0.75943571 0.9280237
-1.3981543 -18.590019 0.75428832 0.9280858
-1.3362597 -17.429199 0.70306516 0.93241441
-1.3636132 -17.453672 0.69992065 0.93231606
-1.3910449 -17.478222 0.69677246 0.9322173
-1.5007178 -18.516348 0.73377591 0.92833167
-1.5262696 -18.498003 0.72867155 0.92839253
-1.5517774 -18.479683 0.72357237 0.92845315
-1.6991308 -19.888296 0.77401763 0.92320591
-1.7386523 -20.008114 0.77394009 0.92275298
-4.043745 -45.764004 1.7593787 0.83201569
-1.781206 -19.829678 0.75764465 0.9233973
-1.8123633 -19.852661 0.75381684 0.92330295
-1.8436035 -19.875717 0.74997926 0.92320824
-1.8749413 -19.898838 0.74613005 0.92311305
-1.9063721 -19.92201 0.7422775 0.9230175
-1.9358349 -19.924116 0.73763001 0.92299998
-1.9670898 -19.944204 0.73364043 0.92291552
-1.9984277 -19.964336 0.72964352 0.9228307
-2.029834 -19.984507 0.72563595 0.92274559
-2.0613282 -20.004742 0.72161895 0.92266005
-2.0929003 -20.025019 0.71759397 0.92257416
-2.1245606 -20.045357 0.71355987 0.92248791
-2.1562989 -20.065742 0.70951813 0.92240125
-2.1881249 -20.086182 0.70546538 0.92231423
-2.2200391 -20.10668 0.70140254 0.92222679
-2.2520118 -20.127201 0.69733155 0.92213911
-2.2840674 -20.147797 0.69324857 0.92205095
-1.8141699 -15.796514 0.53976452 0.9383446
-1.8367871 -15.790127 0.53578568 0.93835914
-1.8594042 -15.78377 0.53181165 0.93837351
-1.8820312 -15.777402 0.52784026 0.93838769
-1.9046338 -15.771025 0.52386868 0.93840182
-1.9272461 -15.764672 0.51989698 0.93841577
-1.9498291 -15.758301 0.51593047 0.93842965
-1.9724023 -15.751777 0.51195878 0.93844396
-1.994038 -15.737885 0.50775021 0.93848604
-2.0156446 -15.724018 0.5035513 0.93852788
-2.0372264 -15.710146 0.49935728 0.93856966
-2.058789 -15.696303 0.49516815 0.93861121
-2.0803027 -15.68248 0.49098876 0.93865258
-2.1018262 -15.668676 0.48680449 0.9386937
-2.1236327 -15.657192 0.48270401 0.93872595
-2.1454883 -15.646211 0.47862333 0.93875617
-2.1673241 -15.635259 0.47454742 0.93878615
-2.1891308 -15.624316 0.47047651 0.93881601
-2.2109325 -15.613379 0.46640548 0.93884569
-2.2327247 -15.602466 0.46234435 0.93887514
-2.254492 -15.591562 0.45828781 0.93890446
-2.2762499 -15.580654 0.45422667 0.93893373
-2.2979932 -15.569765 0.45017517 0.9389627
-2.3197167 -15.558891 0.44612852 0.93899155
-2.3414257 -15.548022 0.4420819 0.93902028
-2.3631201 -15.537172 0.43804747 0.93904883
-2.384795 -15.526323 0.43400833 0.9390772
-2.406455 -15.515483 0.4299762 0.93910545
-2.4281054 -15.504658 0.4259491 0.93913347
-2.4497411 -15.493837 0.42192185 0.93916142
-2.4713526 -15.483037 0.41790953 0.93918914
-2.4929688 -15.472246 0.41389221 0.93921667
-2.5145605 -15.461454 0.40987471 0.93924415
-2.5361524 -15.450688 0.40586716 0.93927139
-2.5576952 -15.439921 0.40186447 0.93929845
-2.5792577 -15.429165 0.39786163 0.93932545
-2.600791 -15.418423 0.39386383 0.93935221
-2.6223145 -15.40769 0.38987076 0.9393788
-2.6438184 -15.396962 0.38588271 0.93940532
-2.6653223 -15.38625 0.38189453 0.93943161
-2.6867919 -15.375537 0.37791121 0.93945777
-2.708252 -15.364839 0.37393296 0.93948382
-2.7297168 -15.354159 0.36995468 0.93950963
-2.7511523 -15.343481 0.36598602 0.93953532
-2.7725928 -15.332812 0.36201736 0.93956083
-2.793999 -15.322158 0.35805359 0.93958616
-2.8154051 -15.311513 0.3540898 0.93961138
-2.836787 -15.300864 0.35013336 0.93963647
-2.8581641 -15.290234 0.34617704 0.93966138
-2.8795311 -15.279624 0.34222794 0.93968606
-2.9008934 -15.269013 0.3382788 0.93971068
-2.9222264 -15.258398 0.33433455 0.93973511
-2.9435546 -15.247803 0.33039519 0.93975943
-2.9648876 -15.237222 0.32645583 0.93978351
-2.9861865 -15.22665 0.32252136 0.93980747
-3.0074706 -15.216074 0.31859159 0.93983132
-3.0287695 -15.205512 0.31466201 0.93985498
-3.0500391 -15.19498 0.31074217 0.93987846
-3.0713036 -15.184423 0.30681258 0.93990183
-3.0925438 -15.173886 0.30289748 0.93992507
-3.1137793 -15.163369 0.29898253 0.93994808
-3.1350098 -15.152856 0.29507262 0.93997097
-3.1562304 -15.142348 0.2911624 0.93999368
-3.1774364 -15.131836 0.28725722 0.94001633
-3.1986229 -15.121338 0.2833519 0.9400388
-3.2198143 -15.110868 0.27945647 0.94006103
-3.2409863 -15.100395 0.27556092 0.94008315
-3.2621531 -15.089931 0.27166548 0.94010508
-3.2833056 -15.079463 0.26777479 0.94012696
-3.3044579 -15.069003 0.26388413 0.94014865
-3.3255761 -15.058569 0.26000565 0.94017017
-3.3467138 -15.048129 0.25612259 0.94019151
-3.3678076 -15.037709 0.25224656 0.94021273
-3.3889258 -15.027289 0.24837051 0.94023377
-3.4100146 -15.016885 0.24449936 0.94025469
-3.4310985 -15.006459 0.24062575 0.94027549
-3.4521778 -14.996069 0.2367572 0.94029611
-3.473242 -14.985688 0.23289581 0.9403165
-3.494287 -14.975292 0.22903442 0.94033688
-3.515332 -14.964916 0.2251718 0.94035703
-3.5363915 -14.954551 0.22131546 0.94037706
-3.5574071 -14.944184 0.21746384 0.94039696
-3.5784471 -14.933843 0.21361221 0.94041657
-3.5994482 -14.923481 0.20976546 0.94043624
-3.6204638 -14.913154 0.20591873 0.94045556
-3.6414599 -14.902817 0.20207687 0.94047487
-3.6624413 -14.892485 0.19823989 0.940494
-3.6834228 -14.882163 0.19439803 0.94051301
-3.7043943 -14.871855 0.1905635 0.94053179
-3.7253563 -14.861547 0.18673386 0.94055045
-3.7463183 -14.851254 0.18290175 0.94056898
-3.7672656 -14.840947 0.17907456 0.9405874
-3.7882128 -14.830668 0.17524734 0.94060558
-3.8091455 -14.820395 0.17142501 0.94062364
-3.8300683 -14.810122 0.16760741 0.94064158
