# .PCD v0.7 - Point Cloud Data file format
VERSION 0.7
FIELDS x y z intensity
SIZE 4 4 4 4
TYPE F F F F
COUNT 1 1 1 1
WIDTH 1115
HEIGHT 1
VIEWPOINT 0 0 0 1 0 0 0
POINTS 1115
DATA ascii
-10.598154 -2.4472363 -1.8688463 0.95681459
-10.604873 -2.4292235 -1.8688467 0.95680511
-10.611587 -2.4112108 -1.868847 0.95679551
-10.618281 -2.3931835 -1.8688475 0.95678592
-10.624966 -2.3751464 -1.8688477 0.9567762
-10.63166 -2.357085 -1.8688482 0.95676637
-10.63834 -2.3390331 -1.8688486 0.95675647
-10.64501 -2.320962 -1.868849 0.95674646
-10.651674 -2.302876 -1.8688494 0.95673639
-10.65833 -2.284785 -1.8688499 0.95672619
-10.664966 -2.2666893 -1.8688504 0.95671594
-10.671616 -2.2485888 -1.8688507 0.95670557
-10.678251 -2.230454 -1.8688511 0.95669508
-10.684868 -2.2123194 -1.8688515 0.95668459
-10.691489 -2.194165 -1.868852 0.95667392
-10.698111 -2.1760204 -1.8688525 0.95666319
-10.704712 -2.1578565 -1.868853 0.95665234
-10.711304 -2.1396728 -1.8688534 0.9566415
-10.717905 -2.1214843 -1.868854 0.95663047
-10.724492 -2.103286 -1.8688545 0.95661932
-10.801001 -2.0986571 -1.8810351 0.95633167
-10.737632 -2.0668457 -1.8688554 0.95659691
-10.744199 -2.0486181 -1.8688558 0.95658553
-10.750761 -2.030376 -1.8688564 0.95657402
-10.757295 -2.0121143 -1.8688569 0.95656252
-10.763847 -1.9938476 -1.8688575 0.95655084
-10.77037 -1.9755615 -1.868858 0.95653915
-10.776918 -1.9572754 -1.8688585 0.95652723
-10.783422 -1.9389697 -1.8688591 0.95651537
-10.789936 -1.9206592 -1.8688596 0.95650333
-10.876924 -1.9165039 -1.8827914 0.95617414
-10.967197 -1.912622 -1.8972735 0.95583218
-11.058833 -1.9086816 -1.9119769 0.95548505
-11.162817 -1.9065185 -1.9287994 0.95508957
-11.277763 -1.9058545 -1.9474918 0.9546513
-11.395004 -1.9051708 -1.9665629 0.95420438
-11.431226 -1.8906689 -1.9716384 0.95407563
-11.438046 -1.8712499 -1.971639 0.95406216
-11.444859 -1.8518066 -1.9716396 0.95404863
-11.45166 -1.8323632 -1.9716405 0.95403498
-11.458457 -1.8129003 -1.9716411 0.95402122
-11.465239 -1.7934179 -1.9716417 0.95400745
-11.472016 -1.7739307 -1.9716423 0.9539935
-11.478799 -1.7544237 -1.971643 0.95397943
-11.485561 -1.7349169 -1.9716437 0.95396531
-11.492319 -1.7153857 -1.9716443 0.95395106
-11.499072 -1.69583 -1.971645 0.95393676
-11.50583 -1.6762842 -1.9716456 0.95392221
-11.512573 -1.6567041 -1.9716464 0.95390767
-11.519297 -1.6371239 -1.971647 0.95389307
-11.526011 -1.6175244 -1.9716477 0.9538784
-11.532754 -1.5979248 -1.9716483 0.95386344
-11.539453 -1.5782861 -1.9716492 0.95384854
-11.546162 -1.5586425 -1.9716499 0.95383346
-11.552871 -1.5389892 -1.9716506 0.95381832
-11.559546 -1.519331 -1.9716513 0.95380312
-11.56625 -1.4996533 -1.971652 0.95378768
-11.57292 -1.4799511 -1.9716527 0.95377225
-11.579595 -1.4602343 -1.9716536 0.95375669
-11.586265 -1.4405224 -1.9716543 0.95374101
-11.592924 -1.4207715 -1.9716551 0.95372528
-11.59957 -1.4010254 -1.9716558 0.95370942
-11.60622 -1.3812451 -1.9716566 0.95369345
-11.612856 -1.36146 -1.9716574 0.95367736
-11.619492 -1.3416601 -1.9716581 0.9536612
-11.626122 -1.3218603 -1.9716591 0.95364487
-11.632734 -1.3020215 -1.9716598 0.95362854
-11.639365 -1.2821826 -1.9716606 0.95361197
-11.645967 -1.2623193 -1.9716613 0.9535954
-11.652573 -1.2424365 -1.9716623 0.95357871
-11.659164 -1.2225537 -1.971663 0.9535619
-11.665747 -1.2026514 -1.971664 0.95354503
-11.672334 -1.1827246 -1.9716647 0.95352799
-11.678906 -1.162788 -1.9716656 0.95351088
-11.685488 -1.1428516 -1.9716663 0.9534936
-11.692051 -1.1228662 -1.9716673 0.95347631
-11.698613 -1.1028906 -1.9716682 0.95345885
-11.705156 -1.0828955 -1.971669 0.95344132
-11.711714 -1.062876 -1.9716699 0.95342362
-11.718251 -1.0428418 -1.9716707 0.95340592
-11.724785 -1.0228027 -1.9716717 0.95338804
-11.731313 -1.0027343 -1.9716724 0.95337003
-11.737827 -0.98266113 -1.9716734 0.95335203
-11.744336 -0.96255857 -1.9716743 0.95333385
-11.75085 -0.94245118 -1.9716753 0.95331556
-11.757348 -0.92231929 -1.9716761 0.9532972
-11.763852 -0.9021728 -1.9716771 0.95327866
-11.770337 -0.8820166 -1.9716781 0.95326006
-11.776821 -0.86185056 -1.9716791 0.95324135
-11.78331 -0.84165037 -1.9716799 0.95322245
-11.78978 -0.82144529 -1.9716809 0.95320356
-11.796245 -0.80121094 -1.9716818 0.95318449
-11.8027 -0.78096187 -1.9716829 0.95316535
-11.80916 -0.76071286 -1.9716837 0.9531461
-11.815615 -0.7404297 -1.9716847 0.95312673
-11.82205 -0.72011715 -1.9716858 0.95310724
-11.828496 -0.69980955 -1.9716867 0.95308763
-11.834922 -0.67947263 -1.9716877 0.95306796
-11.841352 -0.65914059 -1.9716886 0.95304817
-11.847783 -0.63876951 -1.9716897 0.9530282
-11.854204 -0.61838865 -1.9716908 0.95300812
-11.860605 -0.59798825 -1.9716917 0.95298803
-11.866997 -0.57756346 -1.9716928 0.95296782
-11.873398 -0.55711913 -1.9716939 0.95294744
-11.879789 -0.53666991 -1.9716949 0.95292699
-11.886182 -0.51619625 -1.971696 0.95290637
-11.892563 -0.49571288 -1.9716971 0.95288569
-11.898935 -0.47520018 -1.9716982 0.95286489
-11.905302 -0.45466307 -1.9716991 0.95284396
-11.911674 -0.43411621 -1.9717002 0.95282286
-11.918027 -0.41354492 -1.9717013 0.95280176
-11.92439 -0.39296874 -1.9717023 0.95278049
-11.930742 -0.37237304 -1.9717034 0.95275909
-11.937079 -0.35175291 -1.9717045 0.95273763
-11.943422 -0.3311035 -1.9717056 0.95271599
-11.949756 -0.3104541 -1.9717067 0.9526943
-11.956074 -0.28977537 -1.9717078 0.95267248
-11.962398 -0.26907715 -1.9717089 0.95265055
-11.96872 -0.24835937 -1.9717102 0.95262843
-11.975034 -0.22762695 -1.9717113 0.95260626
-11.981333 -0.20687011 -1.9717125 0.95258397
-11.987637 -0.18609864 -1.9717135 0.95256156
-11.99394 -0.1653125 -1.9717147 0.95253903
-12.000224 -0.14449707 -1.9717159 0.95251638
-12.006509 -0.12365234 -1.971717 0.95249367
-12.012793 -0.10280273 -1.9717182 0.95247078
-12.019072 -0.081933595 -1.9717195 0.95244777
-12.025342 -0.061049804 -1.9717207 0.95242465
-12.031611 -0.040122069 -1.9717218 0.9524014
-12.03787 -0.019204101 -1.971723 0.95237809
-12.044111 0.0017480468 -1.9717242 0.95235467
-12.050366 0.022729492 -1.9717255 0.95233107
-12.056616 0.043725584 -1.9717267 0.95230734
-12.062856 0.064731441 -1.9717278 0.95228356
-12.069092 0.085771486 -1.971729 0.9522596
-12.075322 0.10682617 -1.9717305 0.95223558
-12.081543 0.1278955 -1.9717317 0.95221144
-12.087769 0.14899413 -1.9717329 0.95218712
-12.093979 0.1701123 -1.9717342 0.95216268
-12.100195 0.19125 -1.9717355 0.95213819
-12.106406 0.2124121 -1.9717367 0.95211351
-12.112593 0.23359375 -1.9717381 0.95208877
-12.118814 0.25479981 -1.9717393 0.9520638
-12.124995 0.27602538 -1.9717407 0.95203882
-12.131177 0.29726562 -1.9717419 0.95201367
-12.137373 0.31854981 -1.9717432 0.9519884
-12.143535 0.33983397 -1.9717445 0.95196307
-12.149721 0.3611328 -1.9717458 0.9519375
-12.155893 0.38246581 -1.9717473 0.95191187
-12.162066 0.40382323 -1.9717485 0.95188606
-12.168213 0.42520019 -1.9717498 0.95186025
-12.174365 0.44660643 -1.9717512 0.95183426
-12.180527 0.46801758 -1.9717525 0.95180809
-12.186674 0.48946777 -1.971754 0.95178187
-12.192817 0.5109424 -1.9717554 0.95175546
-12.198955 0.53242189 -1.9717567 0.951729
-12.205078 0.55394042 -1.9717581 0.95170242
-12.211216 0.57547361 -1.9717594 0.95167559
-12.217343 0.59703124 -1.9717609 0.95164871
-12.223467 0.61861813 -1.9717623 0.95162171
-12.229585 0.64021969 -1.9717637 0.95159459
-12.235703 0.66185057 -1.971765 0.95156729
-12.241817 0.68349606 -1.9717666 0.95153987
-12.247914 0.70517576 -1.971768 0.9515124
-12.254008 0.72687501 -1.9717693 0.9514848
-12.260093 0.74860352 -1.9717709 0.95145702
-12.266196 0.77033693 -1.9717724 0.95142913
-12.272285 0.79211915 -1.9717737 0.95140105
-12.278374 0.81391114 -1.9717753 0.95137292
-12.284463 0.8357324 -1.9717767 0.95134455
-12.290527 0.85756344 -1.9717783 0.95131618
-12.296601 0.87943846 -1.9717797 0.95128763
-12.302666 0.90133786 -1.9717813 0.95125896
-12.308735 0.92325681 -1.9717828 0.95123017
-12.31478 0.94518554 -1.9717844 0.95120126
-12.320835 0.96716309 -1.9717857 0.95117217
-12.3269 0.98915035 -1.9717872 0.95114291
-12.332944 1.0111669 -1.9717888 0.95111364
-12.338989 1.0331982 -1.9717904 0.95108414
-12.345034 1.0552832 -1.971792 0.95105451
-12.351069 1.077373 -1.9717935 0.95102477
-12.357109 1.0994824 -1.971795 0.95099491
-12.363139 1.1216357 -1.9717965 0.95096487
-12.369164 1.1438037 -1.9717982 0.95093471
-12.37518 1.1660058 -1.9717997 0.95090449
-12.381206 1.1882226 -1.9718014 0.95087403
-12.387217 1.2104737 -1.9718029 0.95084351
-12.393242 1.2327343 -1.9718045 0.95081276
-12.399243 1.2550439 -1.9718062 0.950782
-12.405249 1.2773682 -1.9718078 0.95075101
-12.41125 1.2997167 -1.9718094 0.95071995
-12.417246 1.3220947 -1.9718111 0.95068872
-12.423242 1.3444922 -1.9718127 0.95065731
-12.429238 1.3669385 -1.9718143 0.95062578
-12.435215 1.3893994 -1.9718159 0.95059419
-12.441191 1.4118848 -1.9718176 0.95056242
-12.447197 1.4343945 -1.9718193 0.95053041
-12.453159 1.4569433 -1.971821 0.9504984
-12.459126 1.4795117 -1.9718226 0.95046622
-12.465117 1.5021044 -1.9718243 0.95043379
-12.471074 1.5247314 -1.971826 0.95040137
-12.477051 1.5473877 -1.9718279 0.95036864
-12.483003 1.5700684 -1.9718295 0.95033592
-12.488965 1.5927734 -1.9718312 0.95030302
-12.494922 1.6155224 -1.9718329 0.95026994
-12.500864 1.6382763 -1.9718347 0.9502368
-12.506831 1.6610742 -1.9718363 0.95020336
-12.512769 1.6839013 -1.9718382 0.95016992
-12.518721 1.7067578 -1.9718399 0.95013624
-12.524648 1.7296386 -1.9718417 0.95010251
-12.530605 1.7525488 -1.9718434 0.95006847
-12.536528 1.7754883 -1.9718451 0.9500345
-12.542476 1.7984619 -1.9718471 0.95000017
-12.548398 1.8214501 -1.9718487 0.94996583
-12.554331 1.8444824 -1.9718505 0.94993132
-12.560248 1.8675439 -1.9718524 0.94989669
-12.566176 1.8906348 -1.9718542 0.94986182
-12.5721 1.9137353 -1.971856 0.94982684
-12.578017 1.9368896 -1.9718579 0.94979173
-12.58393 1.9600781 -1.9718597 0.9497565
-12.589839 1.9832861 -1.9718615 0.9497211
-12.595742 2.0065234 -1.9718634 0.94968557
-12.601645 2.0297899 -1.9718652 0.94964987
-12.607539 2.0530956 -1.9718672 0.94961405
-12.613466 2.0764403 -1.971869 0.94957793
-12.619355 2.0997901 -1.9718708 0.94954175
-12.625258 2.1231885 -1.9718728 0.94950545
-12.631147 2.1466112 -1.9718746 0.94946897
-12.637036 2.1700683 -1.9718765 0.94943237
-12.642924 2.1935594 -1.9718784 0.9493956
-12.648813 2.2170751 -1.9718804 0.94935864
-12.654702 2.2406397 -1.9718822 0.94932151
-12.660581 2.2642188 -1.9718843 0.94928432
-12.666465 2.2878368 -1.9718863 0.94924688
-12.672338 2.3114891 -1.9718882 0.94920933
-12.678223 2.3351758 -1.9718901 0.9491716
-12.684111 2.3588867 -1.971892 0.94913363
-12.68997 2.3826463 -1.971894 0.94909567
-12.695835 2.4064257 -1.9718961 0.94905746
-12.701704 2.4302294 -1.971898 0.94901913
-12.707582 2.4540868 -1.9719 0.94898057
-12.713442 2.4779639 -1.971902 0.94894195
-12.719301 2.5018897 -1.9719042 0.94890308
-12.725171 2.5258348 -1.9719061 0.94886404
-12.731025 2.5498242 -1.9719081 0.94882494
-12.736875 2.573833 -1.9719102 0.9487856
-12.742734 2.5978856 -1.9719121 0.94874614
-12.748584 2.6219726 -1.9719143 0.94870651
-12.754448 2.6460888 -1.9719163 0.94866663
-12.760293 2.670249 -1.9719185 0.9486267
-12.766137 2.6944287 -1.9719204 0.94858658
-12.771996 2.7186573 -1.9719225 0.94854623
-12.777837 2.7429199 -1.9719247 0.94850576
-12.783667 2.7672167 -1.9719267 0.94846517
-12.789507 2.7915528 -1.9719288 0.94842434
-12.795362 2.8159227 -1.971931 0.94838333
-12.801201 2.840332 -1.9719331 0.9483422
-12.807046 2.8647606 -1.9719353 0.94830084
-12.81289 2.8892431 -1.9719374 0.94825935
-12.818726 2.9137547 -1.9719394 0.94821769
-12.824551 2.9383006 -1.9719416 0.94817591
-12.830385 2.9628954 -1.9719437 0.94813389
-12.836226 2.9875145 -1.9719461 0.94809169
-12.842046 3.0121727 -1.9719481 0.94804943
-12.847871 3.0368652 -1.9719503 0.94800693
-12.85371 3.0616064 -1.9719527 0.94796419
-12.859526 3.0863769 -1.9719547 0.9479214
-12.865366 3.1111815 -1.9719571 0.9478783
-12.871181 3.1360302 -1.9719592 0.94783509
-12.877031 3.1609228 -1.9719615 0.94779164
-12.882832 3.1858399 -1.9719638 0.94774818
-12.888661 3.2108104 -1.9719659 0.94770437
-12.894482 3.2358055 -1.9719682 0.94766051
-12.900317 3.2608495 -1.9719704 0.94761634
-12.906117 3.2859228 -1.9719728 0.94757211
-12.911948 3.3110547 -1.9719751 0.94752759
-12.917764 3.3362157 -1.9719774 0.947483
-12.923584 3.3613963 -1.9719796 0.94743818
-12.929414 3.3866503 -1.9719819 0.94739312
-12.935225 3.4119334 -1.9719843 0.94734794
-12.941035 3.4372411 -1.9719867 0.94730264
-12.94686 3.4626074 -1.9719889 0.94725704
-12.952676 3.4880028 -1.9719912 0.94721133
-12.958481 3.5134423 -1.9719937 0.94716543
-12.964306 3.5389159 -1.9719959 0.9471193
-12.970107 3.5644433 -1.9719985 0.94707304
-12.975932 3.5900049 -1.9720007 0.94702649
-12.981743 3.6156104 -1.9720031 0.94697988
-12.987563 3.6412647 -1.9720056 0.94693297
-12.993374 3.6669481 -1.9720079 0.94688594
-12.999189 3.6926756 -1.9720103 0.94683868
-13.005014 3.7184618 -1.9720128 0.94679123
-13.01082 3.7442675 -1.9720151 0.94674361
-13.016641 3.7701318 -1.9720176 0.9466958
-13.022461 3.7960351 -1.97202 0.94664776
-13.028271 3.8219726 -1.9720225 0.9465996
-13.034086 3.8479638 -1.9720249 0.9465512
-13.039883 3.8739941 -1.9720274 0.94650269
-13.045712 3.9000633 -1.97203 0.94645381
-13.051518 3.9261816 -1.9720324 0.94640487
-13.057343 3.9523535 -1.9720348 0.9463557
-13.063154 3.9785595 -1.9720374 0.94630629
-13.068974 4.0048141 -1.9720399 0.9462567
-13.074795 4.0311131 -1.9720424 0.94620693
-13.080606 4.0574512 -1.9720449 0.94615698
-13.086415 4.0838428 -1.9720476 0.94610685
-13.092236 4.1102686 -1.9720501 0.94605649
-13.098062 4.1367526 -1.9720527 0.94600582
-13.103882 4.1632762 -1.9720552 0.94595504
-13.109692 4.1898437 -1.9720577 0.94590414
-13.115518 4.2164698 -1.9720603 0.94585288
-13.121347 4.2431345 -1.9720629 0.9458015
-13.127168 4.2698388 -1.9720657 0.94574988
-13.132993 4.2965918 -1.9720683 0.94569808
-13.138823 4.3233933 -1.9720709 0.94564605
-13.144638 4.350244 -1.9720734 0.94559383
-13.150474 4.3771534 -1.9720761 0.94554138
-13.156294 4.4041114 -1.9720788 0.94548875
-13.162128 4.4311032 -1.9720814 0.94543588
-13.167949 4.4581447 -1.9720842 0.94538283
-13.173779 4.485239 -1.9720868 0.94532955
-13.179614 4.5123878 -1.9720895 0.94527602
-13.185453 4.5395899 -1.9720923 0.94522226
-13.191284 4.5668211 -1.972095 0.94516838
-13.197124 4.5941114 -1.9720976 0.9451142
-13.202964 4.6214499 -1.9721004 0.94505984
-13.208794 4.6488328 -1.9721031 0.9450053
-13.214634 4.6762843 -1.9721059 0.94495052
-13.220478 4.7037745 -1.9721086 0.94489545
-13.226328 4.7313132 -1.9721115 0.94484019
-13.232173 4.7589064 -1.9721142 0.94478476
-13.238022 4.7865524 -1.9721169 0.94472909
-13.243862 4.8142529 -1.9721197 0.94467318
-13.249717 4.8419919 -1.9721226 0.94461703
-13.255561 4.8698096 -1.9721254 0.94456071
-13.26142 4.897656 -1.9721283 0.94450414
-13.26728 4.9255662 -1.972131 0.94444728
-13.273144 4.9535251 -1.9721339 0.94439024
-13.279003 4.9815478 -1.9721369 0.94433296
-13.284868 5.0096092 -1.9721397 0.94427544
-13.290722 5.0377197 -1.9721425 0.9442178
-13.296597 5.0658836 -1.9721453 0.94415981
-13.30247 5.0941257 -1.9721483 0.94410157
-13.30835 5.122407 -1.9721512 0.94404316
-13.314209 5.1507468 -1.9721541 0.94398451
-13.320097 5.1791453 -1.9721571 0.94392556
-13.325956 5.2075925 -1.97216 0.94386649
-13.331845 5.236084 -1.9721628 0.94380713
-13.337739 5.264658 -1.9721659 0.94374746
-13.343608 5.2932663 -1.9721688 0.94368774
-13.349492 5.3219385 -1.9721719 0.94362766
-13.355405 5.3506641 -1.9721748 0.94356722
-13.361284 5.379458 -1.9721779 0.94350672
-13.367197 5.4082956 -1.9721808 0.94344586
-13.3731 5.437202 -1.9721838 0.94338477
-13.378999 5.466157 -1.9721868 0.94332349
-13.384902 5.4951706 -1.9721899 0.94326198
-13.39082 5.5242529 -1.972193 0.94320011
-13.396733 5.5533786 -1.972196 0.94313806
-13.402646 5.5825977 -1.9721991 0.94307578
-13.408569 5.6118503 -1.9722023 0.94301319
-13.414477 5.6411667 -1.9722053 0.94295043
-13.420405 5.6705222 -1.9722084 0.94288743
-13.426348 5.6999655 -1.9722116 0.94282407
-13.43228 5.7294579 -1.9722146 0.94276047
-13.438222 5.7590137 -1.9722178 0.94269663
-13.444155 5.7886329 -1.9722209 0.94263262
-13.450102 5.8183055 -1.9722241 0.94256824
-13.456059 5.8480563 -1.9722273 0.94250357
-13.461997 5.8778515 -1.9722304 0.94243878
-13.467954 5.9077244 -1.9722337 0.94237369
-13.473926 5.9376512 -1.9722368 0.94230825
-13.479877 5.967627 -1.9722401 0.94224268
-13.485854 5.9976902 -1.9722433 0.9421767
-13.491821 6.0278077 -1.9722465 0.94211054
-13.497787 6.0579929 -1.9722497 0.94204414
-13.503769 6.0882373 -1.9722531 0.94197738
-13.509766 6.1185498 -1.9722563 0.94191039
-13.515732 6.1489353 -1.9722595 0.94184315
-13.46393 6.1529636 -1.9638326 0.94201714
-13.402978 6.152617 -1.9540757 0.94222957
-13.342461 6.1522655 -1.9443938 0.94244033
-13.282397 6.1519189 -1.9347862 0.94264936
-13.222788 6.1515675 -1.9252516 0.94285679
-13.16538 6.1520362 -1.9160461 0.94305515
-13.111494 6.153955 -1.9073575 0.94323891
-13.057929 6.1558595 -1.8987242 0.94342148
-13.004745 6.1577539 -1.8901534 0.94360256
-12.951904 6.1596336 -1.8816398 0.94378245
-12.899433 6.1615038 -1.8731865 0.94396085
-12.878574 6.178369 -1.8693298 0.94400597
-12.884306 6.2079782 -1.869333 0.94393855
-12.890049 6.2376804 -1.8693362 0.94387084
-12.895801 6.2674508 -1.8693396 0.94380283
-12.901552 6.2972803 -1.8693428 0.94373459
-12.907305 6.327168 -1.8693461 0.9436661
-12.924916 6.3629684 -1.8710651 0.94354701
-12.918813 6.3871531 -1.8693527 0.94352829
-12.924604 6.4172702 -1.869356 0.9434588
-12.930381 6.4474363 -1.8693594 0.94338918
-12.936157 6.4776659 -1.8693627 0.94331926
-12.941953 6.5079784 -1.869366 0.94324899
-12.908936 6.5187645 -1.8637646 0.94334388
-12.853666 6.5181689 -1.854959 0.94353372
-12.799351 6.5178561 -1.8462969 0.94371969
-12.74539 6.5175438 -1.8376902 0.94390434
-12.691801 6.5172315 -1.829147 0.94408756
-12.638559 6.5169239 -1.8206609 0.94426954
-12.585698 6.5166159 -1.8122332 0.94445008
-12.533183 6.5163136 -1.8038657 0.94462931
-12.48102 6.5160055 -1.7955526 0.94480717
-12.429228 6.515708 -1.7873012 0.94498372
-12.377759 6.5154099 -1.7791026 0.94515902
-12.326631 6.5151072 -1.7709585 0.94533306
-12.275849 6.5148144 -1.7628709 0.9455058
-12.230112 6.5170407 -1.755514 0.9456569
-12.19558 6.5250926 -1.7497692 0.94575971
-12.190244 6.5487256 -1.7482169 0.94573617
-12.195752 6.5782371 -1.7482202 0.94566548
-12.201269 6.6078172 -1.7482235 0.94559449
-12.206792 6.6374755 -1.7482269 0.9455232
-12.293379 6.7114649 -1.7598337 0.94509965
-12.227026 6.7020264 -1.7495444 0.94533986
-12.305786 6.7722263 -1.7600193 0.94494921
-12.282158 6.7862253 -1.7558439 0.94500339
-12.258569 6.8002 -1.7516819 0.94505739
-12.235029 6.8141503 -1.747526 0.9451111
-12.211537 6.8280711 -1.7433794 0.94516456
-12.37044 6.9442921 -1.7652622 0.94442141
-12.4696 7.0276217 -1.7786047 0.94393814
-12.555409 7.1038914 -1.7900317 0.94351244
-12.505693 7.1036034 -1.7821339 0.94367862
-12.456299 7.1033154 -1.7742844 0.94384366
-12.407197 7.1030273 -1.7664857 0.94400758
-12.358388 7.1027536 -1.7587365 0.94417036
-11.758867 6.7845507 -1.6726544 0.94675624
-11.769614 6.8171778 -1.6734173 0.94665951
-11.785063 6.8526511 -1.6748464 0.94654173
-11.751631 6.8596873 -1.6693311 0.94663954
-11.693037 6.8518991 -1.660249 0.94684863
-11.776352 6.9273682 -1.671311 0.94642985
-11.764321 6.9469581 -1.6688381 0.94643259
-11.746074 6.9628563 -1.6654849 0.94646269
-11.688037 6.9550438 -1.6564938 0.9466694
-11.643564 6.9551024 -1.6494318 0.94681609
-11.667377 6.9959717 -1.6520413 0.94665921
-11.650136 7.01229 -1.6488405 0.9466846
-13.215581 7.9848385 -1.8695343 0.9396826
-13.221724 8.0189161 -1.8695382 0.93959713
-10.713491 6.5223241 -1.514176 0.95072055
-10.718784 6.5502491 -1.5142218 0.95064855
-10.724082 6.5782566 -1.5142695 0.95057631
-10.729404 6.6063476 -1.5143163 0.95050359
-10.734746 6.6345215 -1.5143672 0.95043057
-10.740097 6.6627731 -1.514416 0.95035726
-10.745463 6.691113 -1.5144681 0.95028359
-10.750845 6.7195311 -1.5145178 0.95020956
-10.089057 6.3294625 -1.4206277 0.95315456
-10.042768 6.3239207 -1.4134463 0.95331734
-9.9967718 6.3184228 -1.4063159 0.95347899
-9.951128 6.3129587 -1.3992399 0.95363927
-9.9058104 6.3075342 -1.3922143 0.95379835
-9.8553705 6.2986622 -1.3844736 0.95398104
-9.8012543 6.287241 -1.3762246 0.95418078
-9.7589397 6.2832274 -1.3696394 0.95432693
-9.7237253 6.283618 -1.3640509 0.95444077
-9.6886864 6.2840185 -1.3584934 0.95455396
-9.6538229 6.2844238 -1.3529652 0.9546665
-9.6180611 6.2841063 -1.3473145 0.95478326
-9.5799656 6.2821336 -1.3413434 0.95491093
-9.542099 6.2801852 -1.3354089 0.95503771
-9.5044527 6.2782373 -1.3295059 0.95516366
-9.467021 6.2762985 -1.3236401 0.95528877
-9.4298 6.2743797 -1.3178074 0.95541304
-9.496748 6.3418894 -1.326532 0.95505565
-9.4801903 6.3537936 -1.3235877 0.95508409
-9.4636717 6.3656836 -1.3206457 0.95511228
-9.4471531 6.3775635 -1.3177093 0.95514035
-9.4306688 6.3894186 -1.3147779 0.95516825
-9.4141893 6.4012647 -1.3118511 0.95519602
-9.3977489 6.4130907 -1.3089286 0.95522362
-9.2462835 6.3324118 -1.2872121 0.95588076
-9.2390966 6.3502049 -1.2855909 0.95586574
-9.231904 6.3680077 -1.2839679 0.9558506
-9.2247219 6.3858204 -1.2823477 0.95583528
-9.2175245 6.4036474 -1.2807257 0.9558199
-9.2103176 6.421484 -1.279103 0.95580435
-9.2031155 6.4393311 -1.27748 0.95578867
-9.195693 6.4570456 -1.2758297 0.95577383
-9.1867914 6.4737301 -1.2739723 0.95576584
-9.1778908 6.4904099 -1.2721153 0.95575774
-9.1689892 6.5071044 -1.2702603 0.95574945
-9.1600876 6.5237937 -1.2684033 0.95574105
-9.1511717 6.5404978 -1.2665473 0.95573258
-9.1422606 6.5572019 -1.2646903 0.95572394
-9.1333494 6.5739059 -1.2628332 0.95571518
-9.1244335 6.5906153 -1.2609776 0.95570636
-9.1155128 6.6073289 -1.2591218 0.95569736
-9.1074457 6.6246872 -1.2573841 0.95568419
-9.099946 6.642446 -1.255724 0.95566815
-9.0924215 6.6602244 -1.2540643 0.95565206
-9.0849123 6.6780076 -1.2524033 0.95563579
-9.077383 6.6958103 -1.2507414 0.95561945
-9.0698538 6.7136178 -1.2490793 0.95560294
-9.0623236 6.7314353 -1.2474172 0.95558631
-9.0547895 6.7492676 -1.245754 0.95556951
-9.047246 6.7671041 -1.2440906 0.95555264
-9.0406446 6.7856736 -1.2425572 0.95553106
-9.0351658 6.8051071 -1.2411778 0.95550388
-9.0296974 6.8245654 -1.2397969 0.95547652
-9.0242043 6.8440428 -1.2384187 0.95544904
-9.0187206 6.8635449 -1.2370356 0.95542139
-9.0132227 6.8830662 -1.2356523 0.95539361
-8.9519529 6.8598876 -1.2266284 0.95563579
-8.9572706 6.8876367 -1.22673 0.9555555
-8.9625978 6.9154782 -1.2268322 0.95547485
-8.9679441 6.9434228 -1.2269359 0.95539379
-8.9741259 6.9720898 -1.2271522 0.95530844
-8.9824018 7.0025048 -1.2276527 0.95521241
-8.9907227 7.0330272 -1.228155 0.95511597
-8.9990721 7.0636864 -1.2286621 0.95501894
-9.0074558 7.0944824 -1.229169 0.95492142
-9.0158691 7.1254148 -1.2296797 0.95482337
-9.0243311 7.1564693 -1.2301948 0.95472473
-9.0497751 7.2011523 -1.2330182 0.95454246
-9.0895653 7.2574854 -1.2377919 0.95428908
-9.1231003 7.3090916 -1.2417103 0.9540658
-9.1569729 7.3612061 -1.2456676 0.9538402
-9.1911812 7.4138522 -1.2496642 0.95361221
-13.878271 11.232622 -1.8859397 0.93070328
-13.88561 11.276738 -1.8859451 0.9305793
-13.893017 11.32103 -1.8859506 0.93045461
-13.90043 11.365483 -1.885956 0.93032932
-13.907837 11.410063 -1.8859615 0.93020356
-13.915307 11.454823 -1.885967 0.93007702
-13.922778 11.499741 -1.8859725 0.92995
-13.930268 11.544795 -1.8859782 0.92982239
-13.937768 11.590029 -1.8859837 0.92969418
-13.945317 11.635425 -1.8859893 0.92956525
-13.95287 11.680991 -1.885995 0.92943573
-13.960434 11.72668 -1.8860006 0.92930573
-13.968061 11.772583 -1.8860062 0.9291749
-13.975683 11.818618 -1.886012 0.92904359
-13.983311 11.864829 -1.8860177 0.92891169
-13.990976 11.911206 -1.8860234 0.92877907
-13.998667 11.957744 -1.8860291 0.92864585
-14.006392 12.004473 -1.886035 0.92851192
-14.014126 12.051362 -1.8860408 0.92837739
-14.02187 12.098408 -1.8860465 0.92824227
-14.029663 12.145664 -1.8860525 0.92810637
-14.037471 12.193076 -1.8860583 0.92796987
-14.045317 12.240659 -1.8860643 0.92783266
-14.053168 12.288432 -1.8860703 0.9276948
-14.06103 12.336352 -1.8860762 0.92755646
-14.068965 12.384501 -1.8860821 0.9274171
-14.076914 12.432827 -1.886088 0.92727715
-14.084853 12.481303 -1.8860942 0.92713666
-14.092836 12.529965 -1.8861002 0.9269954
-14.100854 12.578842 -1.8861063 0.92685342
-14.108871 12.627851 -1.8861123 0.9267109
-14.116958 12.677109 -1.8861184 0.92656744
-14.125019 12.726514 -1.8861247 0.92642343
-14.133144 12.776133 -1.8861308 0.92627865
-14.141284 12.825937 -1.886137 0.92613316
-14.149458 12.875937 -1.8861433 0.92598689
-14.157641 12.926104 -1.8861495 0.92584002
-14.165864 12.976499 -1.8861558 0.92569232
-14.174101 13.027065 -1.886162 0.92554402
-14.182392 13.07787 -1.8861685 0.92539477
-14.190718 13.128857 -1.8861747 0.92524475
-14.199033 13.180029 -1.8861811 0.92509419
-14.207412 13.231441 -1.8861877 0.92494267
-14.215786 13.283003 -1.8861941 0.92479062
-14.224233 13.334814 -1.8862005 0.92463756
-14.232671 13.386821 -1.8862071 0.9244839
-14.241152 13.439028 -1.8862137 0.9243294
-14.249678 13.491474 -1.8862202 0.92417401
-14.258218 13.544121 -1.8862268 0.92401791
-14.266787 13.596952 -1.8862333 0.92386109
-14.255835 13.631332 -1.8836579 0.92380381
-14.240723 13.661772 -1.8805248 0.92376763
-14.225547 13.692187 -1.8773915 0.92373145
-14.210366 13.722641 -1.8742534 0.92369497
-14.195161 13.753124 -1.8711129 0.92365831
-14.179976 13.783628 -1.8679724 0.92362136
-14.164721 13.81414 -1.8648245 0.92358434
-14.149458 13.844667 -1.8616767 0.92354715
-14.134194 13.875234 -1.8585241 0.92350966
-14.118901 13.905806 -1.855369 0.92347199
-14.103608 13.936445 -1.8522114 0.92343402
-14.088276 13.96706 -1.8490539 0.92339593
-14.072948 13.997734 -1.8458915 0.92335755
-14.057568 14.028383 -1.8427242 0.92331916
-14.042172 14.059077 -1.8395594 0.92328048
-14.026801 14.089819 -1.8363874 0.92324138
-14.011367 14.120562 -1.8332129 0.92320234
-13.995942 14.151342 -1.8300358 0.92316288
-13.980474 14.182134 -1.8268565 0.92312336
-13.965014 14.212958 -1.8236723 0.92308354
-13.949497 14.243793 -1.8204855 0.92304361
-13.934004 14.274677 -1.8172964 0.92300332
-13.918471 14.305576 -1.8141049 0.9229629
-13.902905 14.336474 -1.8109109 0.92292231
-13.887339 14.367416 -1.8077121 0.92288148
-13.871777 14.398398 -1.8045107 0.9228403
-13.856186 14.429428 -1.8013072 0.92279887
-13.840561 14.460449 -1.7981009 0.92275739
-13.824917 14.491479 -1.79489 0.92271572
-13.809258 14.522558 -1.7916741 0.9226737
-13.793589 14.553672 -1.7884609 0.9226315
-13.777885 14.5848 -1.7852402 0.92258912
-13.762173 14.615967 -1.7820169 0.92254645
-13.746445 14.647148 -1.7787889 0.92250359
-13.730688 14.678354 -1.775561 0.9224605
-13.714907 14.709595 -1.7723281 0.92241722
-13.699121 14.740884 -1.7690928 0.92237365
-13.681909 14.770663 -1.7656699 0.92233753
-13.664379 14.800141 -1.7622105 0.92230284
-13.646821 14.829634 -1.7587463 0.92226803
-13.629268 14.859189 -1.7552797 0.92223281
-13.611694 14.888735 -1.7518104 0.9221974
-13.594131 14.91832 -1.7483389 0.92216176
-13.576474 14.947876 -1.7448624 0.92212617
-13.578652 14.999346 -1.7439297 0.92198098
-13.582089 15.052426 -1.7431527 0.92182809
-13.585532 15.105702 -1.7423708 0.92167443
-13.588979 15.159175 -1.7415867 0.92152011
-13.592465 15.212861 -1.7408001 0.9213649
-13.595927 15.266743 -1.7400112 0.92120904
-13.599394 15.320845 -1.7392173 0.9210524
-13.602895 15.375155 -1.7384211 0.92089492
-13.606391 15.429683 -1.7376225 0.92073667
-13.609917 15.484419 -1.7368189 0.92057759
-13.613452 15.539413 -1.7360132 0.92041767
-13.616978 15.594584 -1.7352049 0.92025703
-13.620537 15.65 -1.7343942 0.9200955
-13.624102 15.70561 -1.7335786 0.9199332
-13.627681 15.761494 -1.7327583 0.91977
-13.631254 15.817563 -1.7319355 0.91960609
-13.634853 15.873886 -1.7311103 0.91944122
-13.638495 15.930439 -1.7302827 0.91927546
-13.642104 15.987197 -1.7294478 0.91910899
-13.645737 16.044193 -1.7286131 0.91894168
-13.649384 16.101444 -1.7277758 0.91877341
-13.653056 16.158949 -1.7269315 0.9186042
-13.656728 16.21664 -1.7260844 0.91843432
-13.660429 16.274605 -1.7252352 0.91826338
-13.66415 16.332842 -1.7243811 0.91809148
-13.667856 16.39126 -1.7235245 0.91791892
-13.671572 16.449951 -1.7226633 0.91774541
-13.675351 16.508902 -1.7217994 0.91757089
-13.679116 16.568106 -1.7209307 0.91739547
-13.682857 16.627514 -1.7200623 0.91721934
-13.686665 16.687225 -1.7191839 0.91704202
-13.690474 16.747202 -1.7183056 0.9168638
-13.697006 16.810738 -1.7177638 0.91666889
-13.706567 16.878256 -1.7175922 0.91645545
-13.716132 16.946098 -1.7174159 0.91624093
-13.725766 17.014311 -1.7172396 0.91602504
-13.735449 17.082842 -1.7170658 0.91580796
-13.745161 17.151772 -1.7168847 0.91558957
-13.757822 17.224657 -1.7170691 0.91535282
-13.771425 17.299063 -1.7173634 0.91510946
-13.785131 17.37392 -1.7176602 0.91486442
-13.798955 17.449253 -1.7179568 0.9146176
-13.812802 17.524984 -1.7182585 0.9143694
-13.826757 17.601196 -1.7185578 0.91411948
-13.840761 17.677816 -1.7188619 0.91386813
-13.854882 17.754951 -1.7191664 0.91361487
-13.869081 17.832485 -1.7194731 0.91336018
-13.883364 17.910542 -1.7197824 0.91310358
-13.897739 17.989038 -1.7200917 0.91284543
-13.912153 18.067974 -1.7204036 0.91258574
-13.926714 18.14749 -1.7207178 0.91232389
-13.941313 18.227377 -1.7210346 0.9120608
-13.956035 18.307842 -1.7213514 0.91179556
-13.970844 18.388781 -1.7216733 0.91152865
-13.985746 18.470196 -1.7219952 0.91126001
-14.000698 18.552118 -1.7223195 0.91098964
-14.01581 18.634604 -1.7226465 0.91071713
-14.030981 18.717564 -1.7229733 0.91044295
-14.046235 18.801016 -1.7233027 0.91016704
-14.059345 18.882006 -1.7233593 0.90990287
-14.072163 18.962969 -1.7233696 0.9096393
-14.085039 19.044394 -1.72338 0.90937412
-14.098027 19.126368 -1.7233903 0.90910691
-14.111034 19.208736 -1.7234008 0.90883833
-14.124165 19.291691 -1.7234113 0.90856767
-14.137387 19.37516 -1.7234221 0.90829515
-14.150679 19.45911 -1.7234328 0.90802091
-14.164023 19.543547 -1.7234434 0.907745
-14.034535 19.430639 -1.706077 0.90835595
-13.986812 19.430361 -1.6986645 0.90845984
-13.939194 19.43009 -1.6912713 0.90856326
-13.891685 19.429811 -1.6838932 0.90866625
-13.844321 19.429539 -1.676536 0.90876871
-13.797075 19.429264 -1.6691973 0.9088707
-13.749931 19.428989 -1.6618775 0.90897226
-13.702915 19.428715 -1.654577 0.90907329
-13.656006 19.428448 -1.6472912 0.90917391
-13.609223 19.428173 -1.6400279 0.90927404
-13.562563 19.4279 -1.6327804 0.9093737
-13.51601 19.427631 -1.6255482 0.90947288
-13.469565 19.427362 -1.6183362 0.90957165
-13.423242 19.427094 -1.6111435 0.90966994
-13.377026 19.426826 -1.6039679 0.90976781
-13.330942 19.426558 -1.5968051 0.90986514
-13.284946 19.426289 -1.5896624 0.90996212
-13.239067 19.426022 -1.5825409 0.91005862
-13.1933 19.425758 -1.575428 0.91015464
-13.147651 19.425488 -1.5683383 0.91025025
-13.102104 19.425228 -1.561263 0.91034538
-13.05666 19.424965 -1.5542077 0.91044009
-13.011342 19.4247 -1.5471668 0.91053432
-12.966123 19.42444 -1.5401429 0.91062814
-12.920996 19.424175 -1.533138 0.9107216
-12.875986 19.423916 -1.5261422 0.91081458
-12.831108 19.423653 -1.5191689 0.91090709
-12.786304 19.423397 -1.5122113 0.91099918
-12.741611 19.423138 -1.5052677 0.91109085
-12.697026 19.422871 -1.4983404 0.91118211
-12.652554 19.422617 -1.4914328 0.91127294
-12.608159 19.422363 -1.4845369 0.91136336
-12.563882 19.422104 -1.4776553 0.91145337
-12.519702 19.421848 -1.4707922 0.91154295
-12.47563 19.421591 -1.4639447 0.91163212
-12.431645 19.421333 -1.4571103 0.91172087
-12.387778 19.421089 -1.4502945 0.91180915
-12.344004 19.42083 -1.4434906 0.91189706
-12.300337 19.420567 -1.4367059 0.91198462
-12.256742 19.420317 -1.4299325 0.91207176
-12.213271 19.420063 -1.4231781 0.91215843
-12.169892 19.419813 -1.4164358 0.91224474
-12.126592 19.419569 -1.409705 0.91233063
-12.083413 19.419312 -1.402995 0.91241616
-12.040318 19.419067 -1.3962966 0.91250122
-11.997329 19.418814 -1.3896146 0.91258591
-11.954419 19.418564 -1.3829427 0.91267025
-11.911606 19.41832 -1.3762875 0.91275418
-11.868892 19.418072 -1.3696468 0.91283768
-11.826264 19.417822 -1.3630232 0.91292083
-11.783735 19.417572 -1.3564085 0.91300356
-11.741294 19.417328 -1.3498093 0.91308594
-10.80434 17.932276 -1.2405336 0.91953295
-10.765307 17.932055 -1.2344396 0.91960883
-10.734585 17.945557 -1.2293297 0.9196254
-10.734204 18.009926 -1.2276874 0.91942358
-11.530463 19.416103 -1.3170282 0.91349202
-11.488569 19.415863 -1.3105139 0.91357213
-11.446767 19.415619 -1.3040102 0.91365182
-11.405048 19.415375 -1.2975216 0.91373116
-11.363418 19.415131 -1.2910479 0.91381013
-11.321875 19.414892 -1.284583 0.91388869
-11.280415 19.414648 -1.2781321 0.91396695
-11.239033 19.414413 -1.2716957 0.9140448
-11.197759 19.414175 -1.2652743 0.91412228
-11.156538 19.413935 -1.2588615 0.91419941
-11.115415 19.413706 -1.2524675 0.91427618
-11.074394 19.413456 -1.2460829 0.9143526
-11.033452 19.413218 -1.2397113 0.91442865
-10.992578 19.412983 -1.2333493 0.91450429
-10.951797 19.412748 -1.2270026 0.91457963
-10.911098 19.412504 -1.220668 0.91465461
-10.870474 19.412275 -1.2143457 0.91472924
-10.829947 19.412041 -1.2080355 0.9148035
-10.789496 19.4118 -1.2017399 0.91487741
-10.749116 19.411572 -1.1954535 0.91495097
-10.708823 19.411337 -1.1891794 0.91502416
-10.633237 19.346708 -1.1789826 0.91536641
-10.593218 19.346483 -1.1727744 0.91543871
-10.553296 19.346249 -1.1665603 0.91551071
-10.528189 19.373116 -1.161968 0.91546917
-10.483472 19.363867 -1.1552281 0.91557819
-10.438896 19.354639 -1.1485025 0.91568667
-10.394444 19.345434 -1.1418042 0.91579467
-10.350121 19.336269 -1.1351215 0.91590214
-10.305927 19.327114 -1.1284534 0.91600913
-10.261865 19.317987 -1.1218069 0.91611564
-10.217915 19.308901 -1.1151752 0.91622162
-10.176069 19.303574 -1.108786 0.91631156
-10.136997 19.303339 -1.1026918 0.91638005
-10.097983 19.303125 -1.0966161 0.91644818
-10.059067 19.302891 -1.0905467 0.91651601
-10.020209 19.302666 -1.0844914 0.91658348
-9.9814205 19.302446 -1.0784436 0.91665065
-9.942729 19.302212 -1.0724108 0.91671747
-9.9040813 19.301987 -1.0663863 0.91678405
-9.8655272 19.301762 -1.0603702 0.91685021
-9.8270216 19.301542 -1.0543684 0.91691613
-9.7885933 19.301323 -1.0483721 0.91698164
-9.7502394 19.301094 -1.0423932 0.9170469
-9.7119579 19.300879 -1.0364194 0.91711181
-9.6737547 19.30065 -1.0304618 0.91717643
-9.6356106 19.300428 -1.0245136 0.91724074
-9.5975342 19.300215 -1.0185674 0.91730469
-9.5595264 19.299995 -1.0126368 0.91736841
-9.5215912 19.29977 -1.0067182 0.91743177
-9.4837208 19.299561 -1.0008087 0.91749477
-9.4459181 19.29933 -0.9949044 0.9175576
-9.4081879 19.299116 -0.98901302 0.91762
-8.7010403 17.920069 -0.912898 0.92333174
-8.6661282 17.919863 -0.90744239 0.92338949
-8.6312742 17.919662 -0.90201473 0.92344701
-8.6250143 17.97897 -0.89954227 0.92326021
-9.2245169 19.306396 -0.96012497 0.91789353
-9.1901703 19.31251 -0.9545995 0.91792846
-9.1558743 19.318613 -0.94908345 0.91796309
-9.1215916 19.324711 -0.94357425 0.91799754
-9.087368 19.330805 -0.93806756 0.91803169
-9.0531635 19.336895 -0.93256384 0.91806567
-9.0190277 19.342968 -0.92706954 0.91809934
-8.9848871 19.349047 -0.92158234 0.91813284
-8.9508009 19.355116 -0.91609687 0.9181661
-8.9167528 19.361176 -0.91061574 0.91819912
-8.8686275 19.336464 -0.90370154 0.91835636
-8.8318405 19.33626 -0.89795065 0.91841412
-8.7951221 19.336044 -0.89220732 0.91847163
-8.7876024 19.400185 -0.88942343 0.9182691
-8.7509031 19.399965 -0.88367826 0.9183262
-8.7142286 19.399761 -0.8779459 0.918383
-8.6776314 19.39954 -0.87221932 0.91843957
-8.6410933 19.39933 -0.86650056 0.91849577
-8.604599 19.39912 -0.86079204 0.91855174
-8.5681782 19.398907 -0.85509169 0.91860741
-8.531826 19.398695 -0.84939927 0.91866285
-8.4955177 19.398495 -0.84371674 0.91871792
-8.4592724 19.398275 -0.83804107 0.91877276
-8.4230957 19.398062 -0.83237445 0.9188273
-8.3869677 19.397856 -0.82671583 0.9188816
-8.350893 19.397652 -0.82106739 0.9189356
-8.3148775 19.397436 -0.81542468 0.9189893
-8.2789211 19.397226 -0.80979162 0.91904277
-8.243022 19.39702 -0.80416512 0.91909593
-8.2071829 19.396811 -0.79854852 0.9191488
-8.171382 19.396601 -0.79293805 0.91920149
-8.1356497 19.396397 -0.78733701 0.91925383
-8.0999851 19.396191 -0.78174591 0.91930586
-8.0643606 19.395981 -0.77615899 0.91935772
-8.0287991 19.395771 -0.77058417 0.91940928
-7.9932861 19.395571 -0.76501107 0.91946048
-7.9578271 19.395367 -0.75944984 0.9195115
-7.9224167 19.395161 -0.75389814 0.91956228
-7.8870654 19.394951 -0.74835038 0.91961277
-7.8517723 19.394751 -0.74281216 0.91966295
-7.8165283 19.394545 -0.73728001 0.9197129
-7.7813377 19.394344 -0.7317571 0.91976255
-7.746201 19.39414 -0.72624069 0.91981196
-7.711123 19.39394 -0.7207334 0.91986114
-7.6760788 19.39373 -0.71523213 0.91991007
-7.6410985 19.393524 -0.70973748 0.91995871
-7.6061668 19.39333 -0.70425153 0.92000705
-7.5712838 19.39312 -0.69877136 0.92005521
-7.5364647 19.392914 -0.69330025 0.92010307
-7.5016842 19.392719 -0.68783283 0.92015064
-7.466958 19.392519 -0.68237633 0.92019796
-7.4322705 19.392315 -0.67692351 0.92024511
-7.3976364 19.392115 -0.67148697 0.92029196
-7.3630662 19.391918 -0.66604626 0.92033851
-7.3612399 19.478256 -0.66356224 0.92004418
-7.3273778 19.480127 -0.65818572 0.92008227
-7.292788 19.479921 -0.65274441 0.92012835
-7.2582469 19.479727 -0.64731121 0.92017406
-7.1908932 19.390917 -0.63896132 0.92056769
-7.156611 19.390717 -0.63356674 0.92061281
-7.1223731 19.390512 -0.62817746 0.92065763
-7.0881786 19.390316 -0.622796 0.92070222
-7.054028 19.390118 -0.61742002 0.92074656
-7.0199366 19.389921 -0.61204696 0.92079067
-6.9858837 19.389727 -0.60668653 0.92083454
-6.9518795 19.38953 -0.60132885 0.92087811
-6.9179196 19.389326 -0.59597868 0.9209215
-6.8840137 19.38913 -0.59063643 0.9209646
-6.8501415 19.388941 -0.58529907 0.92100751
-6.8163133 19.388741 -0.57996672 0.92105013
-6.7825389 19.388544 -0.57464188 0.92109257
-6.7488132 19.388344 -0.56932431 0.92113471
-6.715117 19.388153 -0.56401181 0.92117661
-6.6814747 19.387959 -0.55870408 0.92121828
-6.647871 19.387764 -0.55340362 0.92125976
-6.6143112 19.387573 -0.54811037 0.92130095
-6.5808053 19.387377 -0.5428195 0.9213419
-6.5473289 19.387182 -0.53753752 0.92138267
-6.513906 19.386988 -0.53226256 0.92142314
-6.4805274 19.386791 -0.52699035 0.92146343
-6.4471827 19.386597 -0.52172756 0.92150348
-6.4138913 19.3864 -0.51646882 0.92154324
-6.3806295 19.386206 -0.51121503 0.92158282
-6.3474169 19.386021 -0.50596648 0.92162216
-6.3142481 19.38583 -0.50072664 0.92166126
-6.2811227 19.38563 -0.49548948 0.92170012
-6.2480273 19.385445 -0.49025971 0.92173874
-6.2149706 19.385248 -0.48503646 0.92177719
-6.1819773 19.385057 -0.47981414 0.9218154
-6.1490088 19.384863 -0.4746016 0.92185336
-6.1160789 19.384678 -0.46939605 0.92189103
-6.0831833 19.384487 -0.46419233 0.92192858
-6.0503516 19.384296 -0.45899245 0.92196584
-6.017529 19.384102 -0.45379987 0.92200291
-5.9847751 19.383915 -0.44861159 0.92203969
-5.9520459 19.383724 -0.44343171 0.92207634
-5.9193406 19.383535 -0.43825653 0.9221127
-5.886704 19.383345 -0.43308562 0.92214888
-5.8540869 19.383154 -0.42791778 0.92218482
-5.8215184 19.382963 -0.42275968 0.92222053
-5.7889795 19.382772 -0.41760176 0.92225599
-5.7564793 19.382582 -0.41245162 0.92229128
-5.7240233 19.382397 -0.40730619 0.92232633
-5.6916013 19.382212 -0.40216446 0.92236114
-5.6592188 19.382021 -0.39703095 0.92239577
-5.6268749 19.381836 -0.39189848 0.92243016
-5.5945506 19.381649 -0.38677183 0.92246431
-5.5622802 19.381454 -0.38165039 0.92249829
-5.5300436 19.381269 -0.37653503 0.92253202
-5.4978366 19.381088 -0.371425 0.92256552
-5.4656787 19.380898 -0.36631531 0.92259884
-5.4335499 19.380713 -0.36121398 0.92263198
-5.4014502 19.380527 -0.35611799 0.92266482
-5.3693895 19.380341 -0.35102463 0.92269748
-5.3373585 19.380156 -0.34593672 0.92272997
-5.3053856 19.379971 -0.3408545 0.92276216
-5.2734227 19.37978 -0.33577713 0.92279422
-5.2415037 19.379604 -0.33069992 0.92282599
-5.209619 19.379419 -0.32562819 0.92285758
-5.1777735 19.379229 -0.32056624 0.92288905
-5.145957 19.379042 -0.31550217 0.92292023
-5.1141553 19.378862 -0.31044525 0.92295116
-5.0824218 19.378681 -0.3053917 0.92298192
-5.0507078 19.378487 -0.30034468 0.9230125
-5.0190187 19.378305 -0.2953006 0.92304283
-4.9873681 19.378124 -0.29026365 0.92307299
-4.9757323 19.456024 -0.28637832 0.92280531
-4.9759421 19.581503 -0.28314513 0.92235667
-4.9752293 19.704731 -0.27981827 0.9219169
-4.9744968 19.829374 -0.27644745 0.92147213
-4.9737549 19.955536 -0.27304137 0.921022
-4.9730077 20.083143 -0.26958799 0.92056674
-4.9722509 20.212328 -0.26609954 0.92010587
-4.9714942 20.342999 -0.26256531 0.91963977
-4.9707274 20.475195 -0.25898802 0.91916829
-4.9699364 20.609043 -0.25536484 0.91869098
-4.9691305 20.744555 -0.25169984 0.91820776
-4.9683495 20.881674 -0.2479834 0.91771895
-4.9675341 21.020527 -0.24422653 0.91722399
-4.9667139 21.161064 -0.24041641 0.91672313
-4.9658837 21.303427 -0.23656417 0.91621584
-4.9650292 21.447504 -0.2326567 0.91570252
-4.9641747 21.593409 -0.22869888 0.91518283
-4.9633155 21.741215 -0.22469313 0.9146564
-4.9624362 21.890938 -0.22062622 0.91412336
-4.9615574 22.042519 -0.21651565 0.91358376
-4.9606495 22.196093 -0.21234848 0.91303718
-4.9597459 22.351704 -0.20812118 0.91248351
-4.9588232 22.509418 -0.20384079 0.91192251
-4.9578857 22.669155 -0.19950226 0.91135448
-4.9569287 22.831049 -0.19509475 0.91077888
-4.9559665 22.995043 -0.19063659 0.91019607
-4.9550047 23.161381 -0.18611541 0.90960503
-4.9540133 23.329956 -0.18152846 0.90900624
-4.9530225 23.500814 -0.17688018 0.90839952
-4.952002 23.67411 -0.17216384 0.9077844
-4.9509764 23.849838 -0.16738082 0.90716082
-4.9499316 24.027945 -0.16253173 0.90652907
-4.9488816 24.208618 -0.15760727 0.90588844
-4.9477978 24.391928 -0.15261474 0.90523869
-4.9467139 24.577784 -0.14754882 0.90458018
-4.9456053 24.766392 -0.14240554 0.90391219
-4.9444871 24.957739 -0.13718933 0.90323478
-4.9433546 25.151875 -0.13189453 0.90254784
-4.9421973 25.348946 -0.12652053 0.90185082
-4.9416943 25.552284 -0.12107483 0.90113145
-4.9423046 25.76474 -0.11557693 0.90037948
-4.9429345 25.980619 -0.10998764 0.89961576
-6.7351022 36.29718 -0.12621093 0.86271757
-6.6758542 36.283802 -0.11703216 0.86280024
-6.616704 36.270424 -0.10785706 0.86288255
-6.5576267 36.25708 -0.098698728 0.86296439
-6.4986668 36.243748 -0.089552149 0.86304581
-6.4397802 36.230434 -0.08041244 0.86312687
-6.3809814 36.217148 -0.071294099 0.86320752
-6.3222704 36.203873 -0.062178344 0.86328775
-6.2636666 36.190628 -0.053078763 0.8633675
-6.205112 36.177383 -0.043986052 0.86344695
-6.1466551 36.164173 -0.034905244 0.86352593
-6.0883055 36.150967 -0.025840148 0.86360461
-6.0300241 36.137783 -0.016781462 0.86368281
-5.9718504 36.124622 -0.00774292 0.86376059
-5.9137254 36.111485 0.0012933349 0.86383802
-5.8557076 36.098351 0.010313873 0.86391503
-5.7977586 36.085247 0.019328307 0.86399162
-5.739902 36.072155 0.028327636 0.86406785
-5.6821432 36.059074 0.037315674 0.86414373
-5.6244531 36.046021 0.046297912 0.86421913
-5.5668454 36.032982 0.055260163 0.86429423
-5.509326 36.019962 0.064221494 0.86436886
-5.4518652 36.006962 0.073167726 0.86444312
-5.3945069 35.993973 0.082103267 0.86451703
-7.5346289 62.361141 0.43607131 0.77781641
-7.4397945 62.360588 0.4514775 0.77785295
-7.3450098 62.360046 0.46686965 0.77788901
-7.2503028 62.359497 0.48225814 0.7779246
-7.1556492 62.35894 0.49764144 0.7779597
-7.061079 62.358391 0.51302826 0.77799439
-6.966567 62.357845 0.52839631 0.77802855
-6.8720651 62.357292 0.54376739 0.77806228
-6.7776217 62.356747 0.55913484 0.77809554
-6.6832666 62.356205 0.57449764 0.77812827
-6.5889549 62.355648 0.58984208 0.77816063
-6.4946971 62.355106 0.6051904 0.77819246
-6.4004784 62.354561 0.62053496 0.77822387
-6.3063083 62.354008 0.63587612 0.77825481
-6.2122264 62.353466 0.65120727 0.77828521
-6.1181641 62.352924 0.66654176 0.77831525
-6.0241795 62.352375 0.68186581 0.77834475
-5.9302096 62.351826 0.69717926 0.77837384
-5.8363233 62.351288 0.71249694 0.77840245
-5.7424951 62.350746 0.72781247 0.77843058
-5.6486816 62.350193 0.74312496 0.7784583
-5.5549512 62.349648 0.758421 0.77848554
-5.4612012 62.34911 0.77372068 0.77851236
-5.367578 62.348564 0.78902525 0.77853864
-5.2739792 62.348011 0.80432099 0.77856451
-5.1804247 62.347469 0.81959957 0.77858996
-5.0868797 62.346924 0.8348825 0.77861494
-4.9934225 62.346386 0.85015714 0.77863938
-4.9000244 62.345844 0.86543667 0.7786634
-4.8066406 62.345303 0.88071501 0.778687
-4.7133203 62.344753 0.89598447 0.77871019
-4.620029 62.344219 0.91125149 0.77873284
-4.5268312 62.343674 0.92651057 0.77875507
-4.4336181 62.34314 0.94177455 0.77877682
-4.3404346 62.342598 0.9570303 0.77879816
-4.2473679 62.342052 0.97228485 0.77881902
-4.1542921 62.341518 0.98753172 0.77883947
-4.0612254 62.340977 1.0027767 0.77885944
-3.968286 62.340443 1.0180291 0.77887893
-3.8753417 62.33989 1.0332577 0.77889806
-3.7824316 62.339355 1.0485085 0.77891666
-3.68958 62.338818 1.0637432 0.77893484
-3.5967431 62.338276 1.0789709 0.7789526
-3.5039501 62.337734 1.0942059 0.77896988
-3.4112549 62.337196 1.1094327 0.77898669
-3.3185449 62.336658 1.1246591 0.77900308
-3.2258496 62.336117 1.1398865 0.77901906
-3.1332226 62.335583 1.1551058 0.77903455
-3.0406346 62.335041 1.1703176 0.77904963
-2.948076 62.334511 1.1855377 0.77906424
-2.855576 62.333973 1.2007511 0.77907836
-2.7630811 62.333435 1.2159643 0.77909213
-2.6706884 62.332893 1.2311785 0.77910542
-1.5791162 38.176723 0.76337463 0.85824305
-1.5192236 38.093384 0.77100921 0.85853672
-1.4596143 38.010426 0.77860624 0.85882884
-1.4002881 37.927895 0.78617764 0.8591193
-1.3412255 37.845711 0.79370755 0.85940832
-1.2824707 37.763943 0.80121303 0.85969567
-1.2239599 37.682529 0.80868042 0.8599816
-1.1657373 37.601524 0.81611907 0.86026591
-1.1077783 37.520897 0.82352781 0.86054868
-1.748081 62.327538 1.3831961 0.77921402
-1.6560205 62.327007 1.3983941 0.77922243
-1.5639355 62.326469 1.4135861 0.77923048
-1.4719238 62.325928 1.4287726 0.77923805
-1.3799316 62.325405 1.4439688 0.77924514
-1.2879883 62.324863 1.4591589 0.77925181
-1.1960742 62.324329 1.4743524 0.77925807
-1.1041406 62.323803 1.4895395 0.77926391
-0.61434078 37.82238 0.91317719 0.85954374
-0.55840331 37.809662 0.92209351 0.8595897
-0.5025537 37.796947 0.93100339 0.85963535
-0.4467285 37.784241 0.93990326 0.85968065
-0.39095703 37.771561 0.94880003 0.85972559
-0.33525878 37.758881 0.95769227 0.85977024
-0.27745605 37.45726 0.9591772 0.86080933
-0.2210791 37.24448 0.96280849 0.861543
-0.16647948 37.281826 0.97286987 0.86141443
-0.11178222 37.3265 0.98314053 0.86126035
-0.056977537 37.371258 0.99343139 0.86110568
-0.0020556641 37.416107 1.0037506 0.86095047
0.052993163 37.467293 1.0142654 0.86077321
0.1085791 37.657825 1.0286081 0.86011595
0.16383301 37.645245 1.0374411 0.86015767
0.21904784 37.632664 1.046278 0.86019915
0.2735205 37.528458 1.0525366 0.86055577
0.32928711 37.607536 1.0639304 0.86028111
0.38435057 37.594997 1.0727451 0.86032158
0.43936035 37.582458 1.0815567 0.86036175
0.49432129 37.569927 1.09036 0.86040163
0.5492236 37.557415 1.0991657 0.86044115
0.60410643 37.544895 1.1079583 0.86048043
0.65892088 37.532398 1.1167452 0.86051935
0.71368653 37.519913 1.1255329 0.86055797
0.76842284 37.507435 1.134313 0.86059624
0.82311034 37.494961 1.1430914 0.86063427
0.87773925 37.482506 1.1518573 0.86067194
0.93233395 37.470047 1.1606311 0.86070931
0.98686522 37.457607 1.1693835 0.86074638
1.0413623 37.445179 1.1781417 0.8607831
1.0958056 37.432747 1.1868932 0.86081958
1.1489209 37.378468 1.1943017 0.861
1.2032177 37.365044 1.203001 0.86103934
1.2574267 37.351635 1.211695 0.86107838
1.3116162 37.338242 1.2203854 0.86111706
1.3657568 37.324844 1.2290646 0.86115551
1.4198339 37.311497 1.2377414 0.86119354
1.4738623 37.298138 1.2464163 0.86123127
1.5278661 37.284798 1.2550888 0.8612687
1.5818408 37.271461 1.2637552 0.86130583
1.6357129 37.258152 1.2724097 0.86134261
1.6895947 37.244839 1.2810622 0.86137909
1.7434131 37.231548 1.2897131 0.86141527
1.7971972 37.218262 1.2983618 0.86145109
1.8509228 37.205009 1.3070047 0.86148661
1.9045947 37.191765 1.3156408 0.86152178
1.9582471 37.178513 1.324271 0.86155671
2.011831 37.165291 1.3328998 0.86159128
