# .PCD v0.7 - Point Cloud Data file format
VERSION 0.7
FIELDS x y z intensity
SIZE 4 4 4 4
TYPE F F F F
COUNT 1 1 1 1
WIDTH 1125
HEIGHT 1
VIEWPOINT 0 0 0 1 0 0 0
POINTS 1125
DATA ascii
-31.328949 15.327205 1.6041268 0.86965674
-31.251024 15.344988 1.5929742 0.86987448
-31.223852 15.387588 1.584421 0.86989522
-31.197554 15.430603 1.5759106 0.86991239
-31.171244 15.473647 1.5674002 0.86992919
-31.144964 15.516663 1.5589017 0.86994576
-31.124819 15.562788 1.5507061 0.86993808
-31.114193 15.613671 1.5429852 0.86989307
-31.103539 15.664634 1.5352533 0.86984777
-31.092896 15.715627 1.5275214 0.86980218
-31.082232 15.76668 1.5197803 0.86975622
-31.071556 15.81779 1.5120337 0.86971003
-31.060888 15.868964 1.5042895 0.86966342
-31.047201 15.91862 1.4963803 0.86962831
-31.030405 15.966767 1.4883288 0.86960495
-31.013597 16.014923 1.4802731 0.8695814
-30.996782 16.063097 1.4722095 0.86955756
-30.979956 16.111332 1.4641501 0.86953342
-30.963129 16.159576 1.4560815 0.86950898
-30.946283 16.207869 1.4480139 0.86948431
-30.929438 16.256189 1.439942 0.86945927
-30.912582 16.304529 1.4318691 0.869434
-30.895708 16.35293 1.4237878 0.86940837
-30.878838 16.401352 1.4157068 0.8693825
-30.861948 16.449804 1.4076214 0.86935639
-30.845053 16.498291 1.3995348 0.86932993
-30.770399 16.515827 1.3888376 0.86953133
-30.662363 16.515215 1.376665 0.86986476
-30.554941 16.514605 1.3645632 0.87019616
-30.448051 16.513998 1.352524 0.87052584
-30.341703 16.513395 1.3405432 0.87085366
-30.235931 16.512798 1.3286337 0.87117952
-30.130659 16.512197 1.3167858 0.87150383
-30.025961 16.5116 1.3049997 0.87182611
-29.921801 16.511015 1.2932779 0.87214667
-29.818144 16.510424 1.281618 0.87246549
-29.715067 16.50984 1.2700186 0.87278241
-29.61244 16.509262 1.2584765 0.87309784
-29.510361 16.508677 1.2469983 0.87341136
-29.408798 16.508101 1.2355859 0.87372321
-29.307743 16.507524 1.2242236 0.87403333
-29.207191 16.506958 1.212919 0.87434179
-29.107162 16.50639 1.201679 0.87464845
-29.007603 16.505823 1.1904953 0.87495357
-28.908569 16.505262 1.179372 0.8752569
-28.809956 16.504702 1.168298 0.87555879
-28.711861 16.504145 1.1572888 0.87585896
-28.614252 16.503588 1.1463287 0.87615752
-28.517138 16.503044 1.1354278 0.87645435
-28.420448 16.502495 1.1245788 0.87674975
-28.324276 16.501947 1.1137848 0.87704343
-28.228525 16.501402 1.1030532 0.87733567
-28.133266 16.500864 1.0923632 0.87762624
-28.038471 16.500326 1.0817325 0.87791526
-27.944096 16.49979 1.0711557 0.87820286
-27.85017 16.499254 1.0606265 0.8784889
-27.756727 16.498728 1.0501596 0.87877333
-27.663681 16.498198 1.0397388 0.87905639
-27.571117 16.497675 1.0293609 0.87933785
-27.478964 16.497149 1.0190454 0.87961787
-27.38726 16.496626 1.008774 0.87989634
-27.382431 16.548365 1.0017169 0.87981766
-27.383091 16.603518 0.99485409 0.87971598
-27.383764 16.658806 0.98797637 0.87961376
-27.384434 16.714184 0.98108214 0.87951118
-27.385098 16.769672 0.97417599 0.87940812
-27.385771 16.825287 0.96725887 0.87930465
-27.386444 16.881027 0.96033567 0.87920064
-27.387114 16.936859 0.95339692 0.87909627
-27.387796 16.992836 0.94644439 0.87899137
-27.388466 17.048916 0.93947506 0.87888604
-27.389151 17.105124 0.9325009 0.87878019
-27.389824 17.161432 0.92550838 0.87867397
-27.39019 17.21768 0.91849577 0.87856859
-27.389872 17.273623 0.91144651 0.87846553
-27.389561 17.329668 0.90438324 0.878362
-27.389248 17.38582 0.89731258 0.87825805
-27.388926 17.442102 0.89022368 0.87815368
-27.388613 17.498491 0.88311917 0.87804878
-27.388296 17.55501 0.87600923 0.87794346
-27.387974 17.611645 0.86887938 0.87783766
-27.387651 17.668379 0.86174619 0.87773144
-27.387329 17.725256 0.85459441 0.87762475
-27.387016 17.782265 0.847431 0.87751752
-27.386688 17.83938 0.84024781 0.87740988
-27.386366 17.896608 0.83306181 0.87730175
-27.386049 17.95397 0.82585633 0.87719309
-27.385721 18.011452 0.81863892 0.87708408
-27.385399 18.069073 0.81140989 0.87697446
-27.385078 18.126799 0.80416501 0.87686443
-27.384745 18.184633 0.79690796 0.87675399
-27.384418 18.242609 0.7896347 0.87664294
-27.384096 18.300728 0.78235412 0.87653142
-27.383764 18.358967 0.77505308 0.87641948
-27.383442 18.417324 0.7677356 0.87630695
-27.383104 18.475805 0.76040953 0.87619406
-27.382778 18.534431 0.75307095 0.87608063
-27.38245 18.593187 0.74571288 0.87596667
-27.382114 18.65206 0.73834503 0.87585223
-27.381783 18.711073 0.73096037 0.87573725
-27.381449 18.770201 0.72356319 0.87562186
-27.381113 18.829481 0.71614438 0.87550592
-27.380781 18.888901 0.70872158 0.8753894
-27.380444 18.948437 0.70127839 0.87527245
-27.380106 19.008121 0.69382292 0.87515497
-27.37977 19.067928 0.68635255 0.87503701
-27.379438 19.127869 0.67886776 0.87491846
-27.379091 19.187965 0.67135799 0.87479949
-27.378759 19.248188 0.66384858 0.87467992
-27.378418 19.308535 0.65631771 0.87455988
-27.378075 19.369038 0.64877349 0.8744393
-27.377733 19.429678 0.64120787 0.87431818
-27.377392 19.490463 0.63363343 0.87419653
-27.377045 19.551367 0.6260373 0.8740744
-27.376709 19.612427 0.61842406 0.87395167
-27.376362 19.673641 0.61080503 0.87382841
-27.37602 19.734995 0.60316068 0.87370461
-27.375668 19.796478 0.59550691 0.87358034
-27.375322 19.858107 0.5878433 0.87345552
-27.374966 19.919899 0.5801512 0.87333012
-27.374619 19.981831 0.57244569 0.87320417
-27.374271 20.043909 0.56472641 0.87307763
-27.37392 20.106142 0.55699199 0.87295055
-27.373573 20.168501 0.54924226 0.872823
-27.373222 20.231045 0.54146928 0.87269479
-25.51725 18.918003 0.49750519 0.88066679
-25.414619 18.900473 0.48826796 0.88099438
-25.312525 18.883047 0.47907761 0.88132012
-25.211035 18.865717 0.46994993 0.88164383
-25.110067 18.848476 0.46086699 0.8819657
-25.009691 18.831343 0.45184508 0.88228554
-24.909897 18.814297 0.44286528 0.88260347
-24.810595 18.797344 0.43394074 0.88291961
-24.711861 18.780483 0.42506757 0.88323385
-24.613638 18.763714 0.41624281 0.88354629
-24.51597 18.747051 0.40747193 0.88385683
-24.427944 18.737446 0.3988916 0.88412499
-24.352186 18.73702 0.39054734 0.88433874
-24.276693 18.736586 0.3822464 0.88455158
-24.201498 18.736162 0.37395325 0.88476336
-24.126566 18.735731 0.36571211 0.88497424
-24.051918 18.735315 0.35750228 0.88518411
-23.977524 18.73489 0.34932035 0.88539302
-23.903412 18.73447 0.34117171 0.88560098
-23.82955 18.734053 0.33304611 0.88580805
-23.75596 18.733633 0.32496047 0.88601416
-23.682655 18.733217 0.31690305 0.88621926
-23.609594 18.732801 0.30887663 0.88642353
-23.5368 18.732388 0.30087873 0.88662678
-23.464224 18.731977 0.29291505 0.88682926
-23.391968 18.731565 0.28497908 0.88703066
-23.319931 18.731159 0.27706939 0.88723123
-23.248169 18.730749 0.26919097 0.88743085
-23.17663 18.730347 0.26134428 0.88762963
-23.105366 18.72994 0.25352111 0.88782746
-23.047768 18.740463 0.24587676 0.88796294
-22.993965 18.75392 0.23828644 0.88808119
-22.940229 18.767355 0.23071715 0.88819903
-22.886625 18.780752 0.22316177 0.88831639
-22.591137 18.59494 0.21333861 0.88954782
-22.539507 18.60914 0.20590454 0.88965762
-22.487972 18.62332 0.19849396 0.88976699
-22.436527 18.63748 0.19109528 0.88987595
-22.38521 18.651598 0.18370941 0.88998437
-22.333969 18.665695 0.17634292 0.89009243
-22.282816 18.679768 0.16898803 0.89020014
-22.231762 18.693817 0.16164885 0.89030731
-22.182364 18.709175 0.15433669 0.89040679
-22.143324 18.733183 0.14710999 0.89045799
-22.109854 18.761879 0.13992248 0.89048302
-22.095503 18.806831 0.13285004 0.89041841
-22.085903 18.855907 0.12579986 0.89033115
-22.084379 18.912041 0.11878479 0.89020544
-22.082861 18.968317 0.11174636 0.8900792
-22.081333 19.02475 0.10469086 0.88995242
-22.079809 19.081316 0.097621761 0.88982505
-22.078272 19.138056 0.090535432 0.88969713
-22.076738 19.194927 0.083428651 0.88956863
-22.07538 19.252131 0.076304778 0.88943869
-22.074062 19.30953 0.069166869 0.88930798
-22.072739 19.367094 0.062011566 0.88917661
-22.175737 19.516605 0.055093687 0.8885507
-22.175415 19.575653 0.047867127 0.88841283
-22.175093 19.634857 0.040624693 0.88827437
-22.17477 19.694244 0.033359986 0.88813531
-22.174448 19.753796 0.026076049 0.8879956
-22.174126 19.813501 0.018772887 0.88785529
-22.173794 19.8734 0.011453552 0.88771433
-22.173481 19.933498 0.0041113282 0.88757265
-22.173143 19.993713 -0.0032504271 0.88743049
-22.172802 20.054132 -0.010628815 0.88728762
-22.172445 20.114712 -0.01803421 0.88714427
-22.172085 20.175457 -0.025452575 0.8870002
-22.171719 20.236376 -0.032894898 0.8868556
-22.171362 20.29748 -0.040353697 0.88671023
-22.170986 20.358793 -0.047840424 0.88656425
-22.17063 20.420254 -0.055340573 0.88641763
-22.170258 20.481907 -0.062865138 0.88627028
-22.169903 20.543758 -0.070406951 0.88612229
-22.169537 20.60577 -0.077973634 0.88597363
-22.169165 20.668016 -0.085561521 0.88582426
-22.168804 20.730402 -0.093167417 0.88567424
-22.168423 20.793013 -0.10079452 0.88552356
-22.16806 20.855793 -0.10844696 0.88537216
-22.167685 20.918774 -0.11611831 0.88522011
-22.167309 20.981937 -0.12381455 0.88506734
-22.166939 21.045298 -0.13152573 0.88491386
-22.166567 21.108856 -0.13926315 0.88475966
-22.166185 21.172619 -0.14702286 0.88460481
-22.16581 21.236563 -0.15480545 0.88444924
-22.16543 21.30073 -0.16261093 0.8842929
-22.165052 21.365063 -0.17043899 0.88413596
-22.164663 21.429619 -0.17828643 0.88397825
-22.164291 21.49435 -0.18616119 0.88381982
-22.163906 21.559317 -0.19405212 0.88366061
-22.163521 21.624475 -0.20197326 0.8835007
-22.16309 21.6898 -0.2099205 0.8833403
-22.111879 21.705492 -0.21738067 0.88343054
-22.044447 21.705116 -0.22466904 0.88360119
-21.977217 21.704733 -0.23193526 0.88377118
-21.91017 21.704353 -0.23917495 0.88394046
-21.843296 21.703972 -0.24640059 0.88410908
-21.77664 21.703594 -0.25359756 0.88427687
-21.710152 21.703217 -0.26077193 0.88444406
-21.643887 21.702841 -0.26792526 0.88461047
-21.577768 21.702465 -0.27505738 0.88477629
-21.511841 21.702095 -0.28216293 0.8849414
-21.446117 21.701717 -0.28925872 0.88510579
-21.380562 21.701347 -0.29632276 0.88526946
-21.315214 21.700979 -0.30336732 0.88543242
-21.250025 21.700607 -0.31039444 0.88559479
-21.185034 21.700237 -0.31739455 0.88575643
-21.120209 21.699873 -0.32437697 0.88591743
-21.055567 21.699501 -0.3313362 0.88607776
-20.991114 21.699141 -0.33827743 0.88623738
-20.92683 21.698774 -0.34518981 0.88639635
-20.862719 21.698402 -0.35209349 0.88655466
-20.809946 21.709673 -0.35916549 0.88665515
-20.79895 21.764565 -0.3669574 0.88654113
-20.740404 21.769691 -0.37391677 0.88667101
-20.682007 21.774818 -0.38085341 0.88680029
-20.61956 21.775534 -0.38769531 0.88695055
-20.556068 21.774981 -0.39449278 0.88710642
-20.492758 21.774427 -0.4012706 0.88726163
-20.429619 21.773886 -0.40802991 0.88741618
-20.366674 21.773333 -0.41477066 0.88757002
-20.303862 21.772787 -0.42149198 0.88772333
-20.241215 21.772242 -0.42819503 0.88787597
-20.178736 21.771694 -0.43487486 0.88802803
-20.116446 21.771147 -0.44153962 0.88817936
-20.054281 21.770596 -0.44818175 0.88833022
-19.99231 21.770041 -0.45480499 0.88848037
-19.930492 21.769495 -0.46140775 0.88862991
-19.868822 21.768951 -0.46799347 0.88877887
-19.804291 21.765057 -0.47449446 0.88894325
-19.736372 21.757248 -0.48087937 0.88912582
-19.616102 21.691339 -0.4859477 0.88958645
-19.555473 21.690992 -0.49244261 0.88973153
-19.494989 21.690651 -0.49891722 0.88987607
-19.434662 21.690304 -0.50537491 0.89002001
-19.374512 21.689966 -0.51181597 0.89016324
-19.314491 21.689623 -0.51824003 0.890306
-19.25462 21.689287 -0.52464402 0.89044815
-19.194906 21.688946 -0.53103161 0.89058971
-16.987743 19.254442 -0.47708893 0.90237385
-16.734247 19.025898 -0.47700515 0.90359825
-16.8827 19.254206 -0.48836088 0.90262407
-16.769072 19.183956 -0.49217635 0.90308493
-16.742886 19.213484 -0.4985272 0.90306634
-16.73373 19.262629 -0.50538772 0.90295368
-16.742626 19.332792 -0.51282102 0.90274072
-16.742491 19.392788 -0.52000916 0.90257668
-16.742353 19.453007 -0.52722394 0.90241182
-16.742226 19.513447 -0.53446591 0.90224618
-16.742085 19.574135 -0.54173553 0.9020797
-16.741953 19.635044 -0.54902649 0.90191233
-16.741821 19.696186 -0.55634838 0.90174419
-16.741674 19.757545 -0.56369489 0.90157527
-16.741543 19.81916 -0.57107025 0.90140539
-16.741411 19.881035 -0.57847118 0.90123463
-16.741264 19.943106 -0.58590025 0.9010632
-16.741133 20.005434 -0.59335816 0.90089077
-16.74098 20.06801 -0.60084242 0.9007175
-16.740845 20.130846 -0.60835618 0.90054333
-16.740707 20.19392 -0.61589611 0.90036827
-16.740566 20.257221 -0.62346876 0.90019238
-16.740429 20.320786 -0.63106537 0.90001559
-15.957919 19.431931 -0.60884583 0.90428722
-15.907534 19.431625 -0.61420178 0.90440315
-15.85727 19.431328 -0.61954892 0.90451854
-15.807124 19.431032 -0.62488067 0.90463346
-15.757113 19.430733 -0.63019466 0.9047479
-15.707187 19.430441 -0.63550228 0.90486193
-15.657377 19.430145 -0.64079177 0.90497547
-15.607699 19.429852 -0.64606977 0.90508848
-15.558125 19.429558 -0.6513359 0.90520108
-15.508672 19.429264 -0.6565901 0.90531319
-15.459301 19.428968 -0.66182661 0.90542489
-15.410088 19.428679 -0.66705197 0.90553606
-15.360971 19.428398 -0.67226988 0.90564674
-15.311973 19.428114 -0.67746824 0.90575701
-15.263066 19.427841 -0.68265045 0.9058668
-15.214282 19.427565 -0.68782973 0.90597612
-15.205625 19.478533 -0.69482315 0.90584928
-15.186137 19.515825 -0.70134193 0.9057855
-15.137456 19.515547 -0.70650035 0.90589392
-15.088872 19.515268 -0.71164817 0.90600193
-15.040424 19.514996 -0.71678823 0.90610945
-14.992055 19.514727 -0.72191143 0.90621656
-14.943804 19.514452 -0.7270242 0.90632319
-14.895644 19.514174 -0.7321232 0.90642941
-14.847588 19.513906 -0.73721153 0.90653521
-14.799663 19.513632 -0.74228698 0.90664053
-14.751801 19.513363 -0.74735588 0.90674549
-14.704082 19.513086 -0.75240362 0.90684998
-14.656435 19.512817 -0.75744373 0.90695405
-14.608906 19.512548 -0.76247543 0.90705764
-14.56146 19.51228 -0.76749343 0.90716088
-14.514145 19.512014 -0.77249855 0.90726364
-14.466924 19.511745 -0.77749401 0.90736598
-14.419785 19.511477 -0.78247654 0.9074679
-14.372739 19.511208 -0.787449 0.90756947
-14.32582 19.510942 -0.7924065 0.9076705
-14.278979 19.510677 -0.79735678 0.90777117
-14.232236 19.510414 -0.80229187 0.90787143
-14.185581 19.510151 -0.80721998 0.90797132
-14.139038 19.509882 -0.81213653 0.90807074
-14.092592 19.509619 -0.81704062 0.90816975
-14.04623 19.509356 -0.82193524 0.90826839
-13.99997 19.50909 -0.8268193 0.90836662
-13.953798 19.508833 -0.83168954 0.90846443
-13.907734 19.508574 -0.83655143 0.90856177
-13.861762 19.508303 -0.84139723 0.9086588
-13.815879 19.508047 -0.84623808 0.90875536
-13.770073 19.507793 -0.85106695 0.90885156
-13.724375 19.507534 -0.85588735 0.90894735
-13.67876 19.507271 -0.86069596 0.90904278
-13.633246 19.507011 -0.86549038 0.90913779
-13.525971 19.417994 -0.86631703 0.90962619
-13.48084 19.417738 -0.8710826 0.90972
-13.435791 19.41748 -0.87581855 0.90981346
-13.390835 19.417217 -0.88055539 0.90990651
-13.345966 19.416967 -0.88527799 0.90999919
-13.301191 19.416708 -0.88999039 0.91009146
-13.25647 19.41646 -0.89469761 0.91018337
-12.201181 17.930889 -0.83057547 0.91684479
-12.160058 17.930658 -0.83493429 0.91692954
-12.134731 17.953642 -0.84032065 0.91691107
-12.134389 18.013788 -0.84747541 0.91672808
-13.034307 19.415199 -0.91807216 0.91063714
-12.990131 19.414946 -0.92272031 0.91072679
-12.94602 19.414698 -0.92735648 0.91081601
-12.902012 19.414442 -0.9319827 0.91090488
-12.858081 19.414198 -0.9366017 0.9109934
-12.814233 19.41395 -0.94121015 0.91108155
-12.770464 19.4137 -0.94580829 0.91116929
-12.726763 19.413456 -0.95039916 0.91125673
-12.683154 19.413212 -0.95497715 0.91134375
-12.639648 19.412954 -0.95955074 0.91143042
-12.59621 19.41271 -0.96410888 0.91151673
-12.552846 19.41246 -0.96866262 0.91160268
-12.50955 19.412222 -0.9732064 0.91168827
-12.466352 19.411978 -0.97774076 0.91177344
-12.423218 19.411737 -0.98226804 0.91185832
-12.380166 19.411489 -0.98678541 0.91194284
-12.337197 19.411245 -0.99129081 0.912027
-12.294312 19.411001 -0.99578947 0.91211081
-12.251493 19.410751 -1.0002812 0.91219425
-12.208755 19.410513 -1.0047636 0.91227734
-12.166099 19.410273 -1.0092371 0.91236007
-12.123491 19.410034 -1.0137007 0.91244251
-12.081 19.40979 -1.0181557 0.91252452
-11.998609 19.34514 -1.0192082 0.91288322
-11.956372 19.344902 -1.0236415 0.91296434
-11.931226 19.37229 -1.0295205 0.9129265
-11.88314 19.362333 -1.033415 0.91304868
-11.835185 19.352411 -1.0372988 0.91317028
-11.787349 19.34251 -1.0411717 0.91329145
-11.739643 19.332642 -1.0450227 0.91341203
-11.692075 19.322807 -1.0488837 0.91353208
-11.644638 19.312992 -1.0527238 0.91365165
-11.597319 19.303207 -1.0565548 0.91377068
-11.555326 19.302137 -1.0608473 0.91385216
-11.513921 19.301908 -1.0651829 0.91392964
-11.472573 19.301674 -1.0695096 0.91400689
-11.431293 19.301435 -1.073825 0.91408384
-11.390102 19.301205 -1.0781375 0.91416037
-11.34896 19.300961 -1.0824405 0.91423661
-11.307885 19.300728 -1.0867323 0.91431254
-11.266899 19.300507 -1.091014 0.91438806
-11.225952 19.300262 -1.0953003 0.9144634
-11.185082 19.300039 -1.099569 0.91453832
-11.144282 19.299814 -1.1038327 0.91461289
-11.10355 19.29958 -1.1080893 0.91468722
-11.062885 19.299351 -1.1123387 0.91476113
-11.02228 19.29912 -1.1165794 0.9148348
-10.981752 19.298885 -1.1208144 0.91490811
-10.941284 19.298656 -1.1250414 0.91498113
-10.121753 17.919086 -1.048548 0.92087823
-10.084302 17.918877 -1.0524411 0.92094582
-10.046894 17.918667 -1.0563377 0.92101318
-10.025615 17.947212 -1.0619681 0.9209587
-10.025244 18.013418 -1.0698085 0.92074513
-10.699804 19.297289 -1.1502537 0.91541255
-10.660781 19.298872 -1.1545326 0.91547573
-10.624496 19.305336 -1.1591105 0.91551822
-10.588247 19.311787 -1.1636772 0.91556048
-10.552031 19.318241 -1.16824 0.91560251
-10.515844 19.324682 -1.1728034 0.91564429
-10.479677 19.331127 -1.1773566 0.91568577
-10.443555 19.337563 -1.1819073 0.91572708
-10.407446 19.343988 -1.1864537 0.91576815
-10.371372 19.35042 -1.1909899 0.91580898
-10.335346 19.35684 -1.1955308 0.91584951
-10.284531 19.335419 -1.1983446 0.91600555
-10.245097 19.33519 -1.2024536 0.91607308
-10.205712 19.334965 -1.2065617 0.91614038
-10.190957 19.381474 -1.2135808 0.91601354
-10.160845 19.398895 -1.218794 0.91600728
-10.121513 19.398672 -1.2228957 0.9160738
-10.082227 19.398447 -1.2269882 0.91614008
-10.043008 19.398232 -1.2310746 0.916206
-10.003838 19.398006 -1.2351516 0.91627169
-9.964736 19.397787 -1.2392254 0.91633707
-9.9256935 19.397564 -1.2432952 0.9164021
-9.8866987 19.397343 -1.2473562 0.91646689
-9.8477688 19.397123 -1.251411 0.91653138
-9.808877 19.396898 -1.2554591 0.91659558
-9.7700481 19.396679 -1.2595043 0.91665947
-9.7312746 19.396465 -1.2635403 0.91672307
-9.6925726 19.39624 -1.2675718 0.91678637
-9.6538916 19.396021 -1.2715963 0.91684943
-9.6152878 19.395805 -1.2756126 0.91691214
-9.5767336 19.395576 -1.2796273 0.91697466
-9.5382175 19.395361 -1.2836349 0.91703683
-9.4997749 19.395145 -1.2876346 0.9170987
-9.4613867 19.394932 -1.2916344 0.91716021
-9.4230318 19.394716 -1.2956244 0.91722155
-9.3847609 19.394491 -1.2996061 0.91728258
-9.3465137 19.394281 -1.3035868 0.91734332
-9.3083153 19.394062 -1.3075585 0.91740376
-9.2701998 19.393843 -1.311525 0.91746396
-9.2320995 19.393633 -1.3154869 0.9175238
-9.1940765 19.393408 -1.3194439 0.91758347
-9.1560936 19.393192 -1.3233923 0.91764277
-9.1181641 19.392979 -1.3273377 0.91770184
-9.0802784 19.392763 -1.3312783 0.91776061
-9.0424414 19.392548 -1.3352139 0.91781908
-9.0046577 19.392334 -1.3391403 0.91787732
-8.9669189 19.392128 -1.3430649 0.91793525
-8.9292431 19.391909 -1.3469855 0.91799295
-8.8915815 19.391693 -1.3508976 0.91805035
-8.8540039 19.391483 -1.3547995 0.91810745
-8.8164501 19.391279 -1.358707 0.91816431
-8.7789698 19.391054 -1.3626134 0.91822088
-8.7415228 19.390844 -1.3664997 0.9182772
-8.7041206 19.390635 -1.3703854 0.91833323
-8.6667671 19.390425 -1.3742687 0.91838896
-8.6294575 19.390209 -1.3781476 0.91844451
-8.592207 19.389999 -1.3820188 0.91849971
-8.5549898 19.389784 -1.385886 0.91855466
-8.5178127 19.389574 -1.3897482 0.91860938
-8.4806929 19.389364 -1.3936086 0.9186638
-8.4436178 19.389154 -1.3974595 0.91871792
-8.4065771 19.388941 -1.4013079 0.91877186
-8.3696041 19.388735 -1.4051526 0.91882545
-8.3326607 19.388525 -1.40899 0.91887879
-8.2957468 19.388319 -1.4128228 0.9189319
-8.2589064 19.388109 -1.4166523 0.91898471
-8.2220945 19.387905 -1.4204794 0.91903728
-8.1853266 19.38769 -1.4242976 0.91908962
-8.1485891 19.387486 -1.4281136 0.91914165
-8.1119089 19.38728 -1.4319259 0.91919345
-8.0752783 19.38707 -1.4357319 0.919245
-8.0386868 19.38685 -1.4395335 0.91929632
-8.0021143 19.38665 -1.4433329 0.91934729
-4.1303468 10.052299 -0.75036436 0.95736116
-4.1114697 10.052251 -0.75233519 0.95738816
-4.0926075 10.052207 -0.75430185 0.95741498
-4.0737643 10.052168 -0.75626224 0.95744175
-4.0549412 10.052124 -0.75822729 0.95746833
-4.0361423 10.052085 -0.76019043 0.95749474
-4.0173631 10.052031 -0.76214546 0.95752108
-3.9986033 10.051987 -0.76410377 0.95754725
-3.9798584 10.051953 -0.76605785 0.95757329
-3.9611473 10.051904 -0.76800984 0.95759916
-3.9424462 10.051865 -0.76996094 0.95762491
-3.9237695 10.051826 -0.77190644 0.95765054
-3.9051123 10.051786 -0.77385318 0.95767599
-3.8864696 10.051743 -0.77579802 0.95770139
-3.8821728 10.088945 -0.78062165 0.95757335
-3.8820653 10.137368 -0.78632694 0.95739925
-3.881958 10.186211 -0.7920832 0.95722353
-3.8818457 10.235478 -0.79788738 0.95704621
-3.8817432 10.285166 -0.80374324 0.95686728
-3.8816357 10.335288 -0.8096503 0.95668674
-3.8815184 10.385864 -0.81560451 0.95650452
-3.8814061 10.436865 -0.82161939 0.95632064
-3.881289 10.488335 -0.82768399 0.95613503
-3.8811767 10.540258 -0.83380377 0.95594764
-3.8810546 10.592642 -0.83997643 0.95575857
-3.8809423 10.645498 -0.84620625 0.95556772
-3.880825 10.698837 -0.85249072 0.95537502
-3.880703 10.752666 -0.85883385 0.95518053
-3.8805809 10.806952 -0.86523002 0.95498425
-3.8804588 10.861777 -0.87169147 0.95478594
-3.8803368 10.917085 -0.87820888 0.95458585
-3.8802099 10.972924 -0.88479024 0.95438373
-3.8800926 11.029248 -0.89142966 0.95417982
-3.879956 11.086143 -0.89813238 0.95397377
-3.8798289 11.143564 -0.90489966 0.95376569
-3.8797021 11.201499 -0.91172999 0.9535557
-3.8795702 11.260019 -0.91862029 0.95334351
-3.8794384 11.319081 -0.92558467 0.95312929
-3.8793163 11.378696 -0.93261337 0.95291299
-3.8791747 11.438926 -0.93970817 0.95269436
-3.8790381 11.499717 -0.94687444 0.95247364
-3.8788965 11.561113 -0.95411521 0.95225066
-3.8787694 11.623096 -0.96141279 0.95202547
-3.8786278 11.685703 -0.96879661 0.95179796
-3.8784912 11.74892 -0.97624493 0.95156813
-3.8783445 11.812793 -0.9837721 0.95133585
-3.8781981 11.877295 -0.99137717 0.95110124
-3.8780518 11.942436 -0.99906021 0.95086426
-3.8779051 12.008257 -1.0068148 0.95062464
-3.8777587 12.074751 -1.0146514 0.95038259
-3.8776171 12.141919 -1.0225732 0.95013797
-3.877461 12.20979 -1.0305705 0.94989073
-3.8773096 12.278359 -1.0386508 0.94964093
-3.8771532 12.347617 -1.046819 0.9493885
-3.876997 12.417631 -1.0550746 0.94913328
-3.8768456 12.488393 -1.0634145 0.94887525
-3.8766747 12.559907 -1.0718393 0.94861448
-3.8765135 12.632168 -1.0803642 0.94835085
-3.8763623 12.705205 -1.0889763 0.94808435
-3.8761961 12.779072 -1.0976828 0.94781476
-3.8760252 12.853705 -1.106483 0.94754231
-3.8758593 12.929145 -1.1153777 0.94726688
-3.8756981 13.005449 -1.1243726 0.94698822
-3.8755271 13.082573 -1.1334599 0.94670653
-3.8753467 13.160576 -1.142666 0.94642156
-3.8751707 13.239438 -1.1519654 0.94613338
-3.874995 13.319184 -1.1613683 0.94584197
-3.8748193 13.399873 -1.1708806 0.94554698
-3.8746338 13.481435 -1.1804978 0.94524884
-3.8744531 13.56397 -1.1902343 0.944947
-3.8742626 13.64745 -1.2000782 0.94464177
-3.8740721 13.73189 -1.2100383 0.9443329
-3.8738866 13.817324 -1.2201062 0.94402039
-3.8736913 13.903765 -1.2302971 0.94370413
-3.8735008 13.99124 -1.2406261 0.94338405
-3.8733056 14.079765 -1.251061 0.9430601
-3.8731053 14.169326 -1.2616318 0.94273233
-3.8728955 14.260005 -1.2723153 0.94240046
-3.872705 14.351738 -1.2831391 0.94206464
-3.8724902 14.444624 -1.2941015 0.9417246
-3.8722851 14.538671 -1.3051933 0.94138026
-3.8720653 14.633852 -1.3164215 0.94103181
-3.8718603 14.730264 -1.3277966 0.94067878
-3.8716357 14.827856 -1.3393016 0.94032139
-3.8714209 14.926675 -1.3509576 0.93995953
-3.871201 15.026772 -1.3627756 0.9395929
-3.8709764 15.128159 -1.3747348 0.93922162
-3.8707421 15.230854 -1.3868492 0.93884552
-3.8705077 15.334897 -1.3991238 0.93846446
-3.8702734 15.440258 -1.411557 0.93807858
-3.870034 15.547055 -1.4241577 0.9376874
-3.8697898 15.655244 -1.4369142 0.93729115
-3.8695457 15.764868 -1.4498582 0.93688965
-3.8693066 15.87601 -1.4629718 0.93648261
-3.8690429 15.988632 -1.4762636 0.93607014
-3.8688037 16.102768 -1.4897306 0.9356522
-3.8685448 16.21854 -1.5033953 0.93522823
-3.8682861 16.335907 -1.5172457 0.93479848
-3.8680127 16.454868 -1.5312834 0.93436289
-3.8677537 16.575527 -1.5455291 0.9339211
-3.8674853 16.697905 -1.5599749 0.93347311
-3.8672118 16.822035 -1.5746161 0.93301874
-3.8669188 16.947948 -1.5894804 0.93255788
-3.8666453 17.075712 -1.6045474 0.93209028
-3.8663573 17.205303 -1.6198617 0.93161607
-3.8660545 17.33683 -1.6353843 0.93113488
-3.8657665 17.470263 -1.6511358 0.93064678
-3.8654687 17.605717 -1.6671271 0.93015128
-3.8651609 17.743256 -1.6833627 0.92964834
-3.8648388 17.882841 -1.6998467 0.929138
-3.8645313 18.024555 -1.7165762 0.92861992
-3.8503661 18.103363 -1.7273506 0.92834216
-3.8121045 18.069204 -1.7273566 0.92849505
-3.7740037 18.035147 -1.7273626 0.92864728
-3.736079 18.001265 -1.7273687 0.92879856
-3.6982958 17.967539 -1.7273747 0.928949
-3.6606834 17.93391 -1.7273806 0.92909884
-3.6232176 17.900404 -1.7273866 0.92924798
-3.5859129 17.867069 -1.7273926 0.92939615
-3.5487645 17.833876 -1.7273985 0.92954355
-3.5117674 17.800766 -1.7274042 0.92969042
-3.4749463 17.767826 -1.7274102 0.92983633
-3.4382617 17.735023 -1.727416 0.92998153
-3.4017186 17.702362 -1.7274219 0.93012595
-3.3653369 17.669781 -1.7274276 0.93026978
-3.3291063 17.637383 -1.7274333 0.93041271
-3.2930028 17.605053 -1.727439 0.93055511
-3.2570703 17.572901 -1.7274448 0.93069661
-3.2212646 17.540834 -1.7274504 0.93083751
-3.1856103 17.508911 -1.727456 0.9309777
-3.1501122 17.477123 -1.7274617 0.93111706
-3.1147363 17.445444 -1.7274673 0.93125582
-3.0795069 17.413897 -1.7274728 0.93139386
-3.0444238 17.382431 -1.7274785 0.93153131
-3.0094824 17.351112 -1.727484 0.93166798
-2.9746532 17.319912 -1.7274895 0.931804
-2.9399951 17.288866 -1.727495 0.93193913
-2.9054637 17.257885 -1.7275004 0.93207383
-2.8710594 17.227016 -1.7275059 0.93220788
-2.8368018 17.196289 -1.7275113 0.93234116
-2.8026612 17.165697 -1.7275168 0.93247372
-2.7686865 17.135185 -1.7275221 0.93260574
-2.7348046 17.10479 -1.7275274 0.93273711
-2.7010694 17.074501 -1.7275327 0.93286788
-2.6674559 17.044331 -1.7275381 0.93299794
-2.6339793 17.014273 -1.7275435 0.93312734
-2.6006396 16.984312 -1.7275488 0.93325615
-2.5674169 16.954487 -1.727554 0.93338424
-2.5343065 16.924761 -1.7275592 0.93351173
-2.5013428 16.895111 -1.7275643 0.93363875
-2.4685009 16.865601 -1.7275696 0.93376499
-2.435791 16.836182 -1.7275747 0.9338907
-2.4031885 16.806879 -1.72758 0.93401575
-2.3706982 16.77766 -1.7275851 0.93414026
-2.3383496 16.748564 -1.7275901 0.93426412
-2.306118 16.719551 -1.7275953 0.93438745
-2.2741113 16.691557 -1.7276982 0.93450671
-2.2423875 16.664736 -1.7279085 0.93462127
-2.2107618 16.638012 -1.7281138 0.9347353
-2.1792579 16.611338 -1.7283241 0.9348489
-2.1478565 16.584776 -1.7285343 0.93496192
-2.1165478 16.558306 -1.7287396 0.93507433
-2.0853515 16.531904 -1.728945 0.93518633
-2.0542724 16.5056 -1.7291502 0.93529779
-2.0232861 16.47937 -1.7293555 0.93540871
-1.992417 16.453238 -1.7295606 0.93551904
-1.9616553 16.427168 -1.7297659 0.93562901
-1.9309814 16.401182 -1.7299712 0.93573844
-1.9004149 16.375282 -1.7301714 0.93584734
-1.8699511 16.349457 -1.7303766 0.93595576
-1.8395898 16.32373 -1.7305769 0.93606359
-1.8093311 16.298077 -1.7307771 0.936171
-1.7791846 16.27248 -1.7309773 0.93627793
-1.749126 16.246992 -1.7311777 0.93638432
-1.7191454 16.221542 -1.7313778 0.93649036
-1.6893017 16.196211 -1.731573 0.93659574
-1.6595215 16.170923 -1.7317731 0.93670082
-1.6298486 16.145746 -1.7319685 0.93680525
-1.6002929 16.120619 -1.7321686 0.93690932
-1.5708057 16.095575 -1.7323638 0.93701285
-1.5414404 16.07061 -1.732559 0.93711597
-1.5121484 16.045702 -1.7327543 0.93721861
-1.4829589 16.020887 -1.732947 0.93732077
-1.4538623 15.996142 -1.7331398 0.93742245
-1.4248486 15.971455 -1.7333349 0.93752372
-1.3959472 15.946845 -1.7335252 0.93762457
-1.3671191 15.922343 -1.7337203 0.93772477
-1.3383936 15.897866 -1.7339104 0.93782473
-1.3097607 15.873471 -1.7341008 0.93792421
-1.2811962 15.84915 -1.7342908 0.93802321
-1.252749 15.824917 -1.7344812 0.93812168
-1.2243848 15.800756 -1.7346712 0.93821973
-1.1961132 15.77663 -1.7348614 0.93831748
-1.1679248 15.752559 -1.7350466 0.93841481
-1.1398095 15.728594 -1.7352368 0.93851161
-1.111792 15.704707 -1.735422 0.93860787
-1.0838428 15.68084 -1.7356073 0.93870395
-1.0560254 15.657075 -1.7357973 0.93879944
-1.0282568 15.633373 -1.7359824 0.93889451
-1.0005761 15.609731 -1.7361676 0.93898922
-0.97300291 15.586157 -1.7363479 0.93908346
-0.94548339 15.562646 -1.736533 0.93917727
-0.91808105 15.539194 -1.7367181 0.93927073
-0.8907373 15.51581 -1.7369032 0.93936378
-0.8634814 15.492485 -1.7370834 0.9394564
-0.83629882 15.469248 -1.7372636 0.93954855
-0.80921388 15.446025 -1.7374487 0.93964046
-0.78220212 15.42291 -1.7376289 0.93973184
-0.7552734 15.399843 -1.7378091 0.93982279
-0.7284326 15.376836 -1.7379892 0.93991339
-0.70164061 15.353887 -1.7381693 0.94000363
-0.6749658 15.330996 -1.7383494 0.94009346
-0.64834958 15.308173 -1.7385246 0.94018286
-0.62181151 15.28541 -1.7387048 0.94027191
-0.59534669 15.262724 -1.7388799 0.94036049
-0.5689795 15.240053 -1.73906 0.94044882
-0.54267091 15.217475 -1.7392352 0.94053668
-0.51645017 15.194931 -1.7394104 0.94062424
-0.49029785 15.17247 -1.7395903 0.94071132
-0.46423826 15.150068 -1.7397654 0.94079804
-0.43823242 15.127714 -1.7399406 0.94088441
-0.41229978 15.1054 -1.7401108 0.94097042
-0.38646483 15.083149 -1.7402859 0.94105607
-0.36068848 15.060981 -1.7404609 0.94114131
-0.33498046 15.038862 -1.740636 0.94122612
-0.3093408 15.016757 -1.7408061 0.94131076
-0.2838037 14.994746 -1.7409811 0.94139487
-0.25831541 14.972788 -1.7411513 0.94147867
-0.23290527 14.950884 -1.7413213 0.94156206
-0.20754883 14.929013 -1.7414916 0.94164521
-0.18229492 14.907222 -1.7416617 0.94172788
-0.15708007 14.885473 -1.7418318 0.94181025
-0.13195312 14.863754 -1.7420018 0.94189239
-0.1069043 14.842104 -1.7421719 0.94197404
-0.08191406 14.820537 -1.7423419 0.94205528
-0.056992184 14.798984 -1.742512 0.94213629
-0.032143556 14.777499 -1.7426771 0.94221693
-0.0073730466 14.756044 -1.7428471 0.94229728
0.017333984 14.734682 -1.7430123 0.94237715
0.041987304 14.713345 -1.7431823 0.94245678
0.066562496 14.692056 -1.7433474 0.94253606
0.091083981 14.67083 -1.7435125 0.94261497
0.11554199 14.652538 -1.7440245 0.94268256
0.14000487 14.63853 -1.7450399 0.94273376
0.16441894 14.624556 -1.7460552 0.94278467
0.18878418 14.610596 -1.7470708 0.94283539
0.21311034 14.59666 -1.7480812 0.94288588
0.23738769 14.582739 -1.7490965 0.94293612
0.26163575 14.568832 -1.750107 0.94298619
0.28583497 14.554955 -1.7511126 0.94303602
0.30999511 14.541074 -1.7521231 0.94308567
0.33411619 14.527236 -1.7531286 0.94313502
0.35819334 14.513408 -1.7541342 0.9431842
0.38224119 14.499579 -1.7551348 0.94323325
0.40623045 14.485796 -1.7561404 0.94328195
0.43019041 14.472012 -1.7571411 0.94333053
0.45411131 14.458257 -1.7581369 0.94337881
0.47799805 14.444507 -1.7591374 0.94342697
0.50182617 14.430781 -1.7601331 0.94347489
0.52562499 14.41706 -1.7611289 0.94352263
0.54938966 14.403383 -1.7621245 0.94357002
0.57311034 14.389702 -1.7631207 0.94361734
0.59680176 14.376035 -1.7641114 0.94366443
0.62045407 14.362402 -1.7651024 0.94371128
0.64405763 14.348764 -1.7660931 0.94375795
0.6676172 14.335155 -1.7670839 0.94380444
0.69115722 14.321552 -1.7680699 0.9438507
0.71466309 14.307983 -1.7690557 0.94389671
0.73810548 14.294418 -1.7700416 0.94394255
0.76153809 14.280873 -1.7710274 0.9439882
0.78492188 14.267353 -1.7720087 0.94403356
0.80826658 14.253833 -1.7729895 0.94407886
0.83158201 14.240332 -1.7739705 0.94412386
0.85484374 14.226846 -1.7749515 0.94416869
0.8780908 14.213379 -1.7759275 0.94421333
0.90128416 14.199926 -1.7769085 0.94425774
0.92444819 14.18648 -1.7778846 0.94430202
0.94758296 14.173066 -1.7788607 0.94434601
0.9706738 14.159653 -1.7798318 0.94438988
0.99373531 14.146259 -1.780808 0.94443351
1.0167724 14.132871 -1.7817792 0.94447696
1.0397363 14.119507 -1.7827502 0.94452024
1.0627099 14.106157 -1.7837214 0.94456327
1.0856103 14.092827 -1.7846876 0.94460613
1.1085205 14.079502 -1.7856539 0.9446488
1.1313525 14.066206 -1.7866225 0.94469124
1.154165 14.0529 -1.7875912 0.94473356
1.1769433 14.039614 -1.7885525 0.9447757
1.1997021 14.026357 -1.7895188 0.94481754
1.2224121 14.013101 -1.7904801 0.94485933
1.2451123 13.999867 -1.7914414 0.94490081
1.267749 13.986635 -1.7924027 0.94494218
1.2903515 13.973417 -1.793364 0.9449833
0.63997555 6.804956 -0.87464786 0.97281349
0.64992672 6.7877002 -0.87372136 0.97287667
0.65984863 6.7705274 -0.87279963 0.97293943
0.66978025 6.7542038 -0.8719824 0.9729988
0.68124998 6.75353 -0.87318391 0.97299635
0.6927197 6.7528563 -0.87438542 0.97299385
0.70419919 6.7521825 -0.8755883 0.97299129
0.7156738 6.7514939 -0.87679225 0.97298872
0.72715819 6.7508202 -0.87799633 0.97298598
0.73863769 6.7501464 -0.87920111 0.97298318
0.75013667 6.7494578 -0.88040775 0.97298038
0.76161617 6.7487741 -0.88161403 0.97297746
0.77311522 6.748086 -0.8828215 0.97297448
0.7845996 6.7473974 -0.8840301 0.97297144
0.79610837 6.7467136 -0.88523936 0.97296828
0.80761719 6.7460303 -0.88645011 0.972965
0.81913084 6.7453418 -0.8876614 0.97296172
0.8306396 6.7446485 -0.8888731 0.97295839
0.8421582 6.7439551 -0.89008588 0.97295493
0.85368162 6.7432666 -0.89130008 0.97295141
0.86520994 6.7425733 -0.89251477 0.97294784
0.87673336 6.7418747 -0.89373016 0.9729442
0.88827145 6.7411814 -0.8949464 0.97294044
0.89980954 6.7404833 -0.8961643 0.97293669
0.91103023 6.7374363 -0.89707023 0.97294211
0.92205077 6.7328906 -0.89777571 0.97295338
0.93305659 6.7283397 -0.89848089 0.97296458
0.94404292 6.723794 -0.89918625 0.97297579
0.9550488 6.7192526 -0.89989156 0.97298682
0.96602046 6.7147069 -0.90059638 0.97299784
0.99374509 6.8250976 -0.91678411 0.97255278
1.9974414 13.556987 -1.8236196 0.94620442
2.0190575 13.54416 -1.8245515 0.94623971
2.0406346 13.531338 -1.8254833 0.94627482
2.0621924 13.51853 -1.8264151 0.94630969
2.0837059 13.505727 -1.8273469 0.94634449
2.1052001 13.492925 -1.8282738 0.94637913
2.1266797 13.480146 -1.8292056 0.94641352
2.1481152 13.467378 -1.8301324 0.94644779
2.1695311 13.454614 -1.8310592 0.94648188
2.1909227 13.44186 -1.8319862 0.9465158
2.2122753 13.429121 -1.832913 0.94654953
2.233618 13.416387 -1.833835 0.94658315
2.2549219 13.403657 -1.834762 0.94661659
2.2761915 13.390942 -1.8356838 0.94664985
2.297456 13.378232 -1.8366107 0.94668293
2.3186767 13.365532 -1.8375326 0.94671589
2.3398778 13.352846 -1.8384546 0.94674867
2.3610547 13.340166 -1.8393764 0.94678128
2.3822217 13.327485 -1.840296 0.94681376
2.4033203 13.314815 -1.8412155 0.94684607
2.4244189 13.302163 -1.8421375 0.94687819
2.4454932 13.289516 -1.8430544 0.94691014
2.4665332 13.276855 -1.8439764 0.94694209
2.4875634 13.264238 -1.8448935 0.94697368
2.5085547 13.251626 -1.8458105 0.94700509
2.5295262 13.238994 -1.8467276 0.9470365
2.550493 13.226397 -1.8476396 0.94706762
2.5714111 13.213784 -1.8485566 0.94709873
2.5923047 13.2012 -1.8494737 0.94712955
2.6131592 13.188603 -1.8503857 0.9471603
2.6340184 13.176035 -1.8513027 0.94719082
2.6548486 13.163462 -1.8522149 0.94722122
2.6756639 13.150918 -1.8531269 0.94725138
2.6964355 13.13835 -1.8540391 0.94728154
2.7171826 13.125805 -1.8549511 0.94731146
2.737915 13.113256 -1.8558631 0.94734126
2.7586279 13.100737 -1.8567704 0.94737083
2.7792969 13.088207 -1.8576825 0.94740033
2.7999609 13.075684 -1.8585947 0.9474296
2.8205957 13.063169 -1.8595017 0.9474588
2.8412061 13.050669 -1.8604089 0.94748777
2.8617918 13.038169 -1.8613209 0.94751662
2.8823633 13.025679 -1.8622282 0.94754535
2.90291 13.013188 -1.8631353 0.9475739
2.9234228 13.000708 -1.8640425 0.94760233
2.9439404 12.988247 -1.8649447 0.94763052
2.9644091 12.97578 -1.8658519 0.9476586
2.9848583 12.963301 -1.8667589 0.94768661
3.0052979 12.950859 -1.8676612 0.94771439
3.025708 12.938408 -1.8685684 0.94774204
3.0460789 12.925957 -1.8694731 0.94776958
3.0664551 12.913525 -1.8703778 0.94779694
3.086792 12.901103 -1.8712801 0.94782412
3.1071239 12.888686 -1.8721823 0.94785112
3.1274266 12.876255 -1.8730844 0.94787806
3.1477051 12.863842 -1.8739866 0.94790483
3.167959 12.85143 -1.8748889 0.94793147
3.1881981 12.839033 -1.8757911 0.94795793
3.2084033 12.826631 -1.8766884 0.94798428
3.2286084 12.814238 -1.8775905 0.94801044
3.2487841 12.80186 -1.8784928 0.94803649
3.2689354 12.789473 -1.8793901 0.94806242
3.2890625 12.777095 -1.8802923 0.94808817
3.3091698 12.764722 -1.8811896 0.94811374
3.3287549 12.750434 -1.8818052 0.94814682
3.3287256 12.661572 -1.8713969 0.94847524
3.3290088 12.575122 -1.8613114 0.94879436
3.3293114 12.48977 -1.8513533 0.94910938
3.3295898 12.405498 -1.8415275 0.94942039
3.3298826 12.322255 -1.8318185 0.94972759
3.3301561 12.240029 -1.822232 0.95003092
3.3307276 12.159863 -1.8129203 0.95032638
3.33687 12.100937 -1.8067499 0.95053738
3.3468311 12.056431 -1.8027133 0.95069104
3.3648388 12.041249 -1.8030524 0.9507277
3.3828223 12.026069 -1.8033916 0.95076424
3.4007812 12.010908 -1.8037302 0.95080066
3.4187059 11.995756 -1.8040687 0.9508369
3.4366014 11.98063 -1.8044066 0.9508729
3.4544678 11.965508 -1.8047445 0.95090884
3.4723144 11.9504 -1.8050818 0.9509446
3.4901366 11.935317 -1.805419 0.95098013
3.507915 11.920244 -1.8057557 0.95101559
3.5256786 11.90517 -1.8060925 0.95105088
3.5434082 11.890121 -1.8064284 0.95108598
3.5611084 11.875073 -1.8067645 0.95112097
3.5787938 11.860048 -1.8071002 0.95115578
3.5964501 11.845038 -1.8074387 0.95119047
3.6140966 11.830097 -1.8077819 0.95122468
3.6317139 11.815161 -1.8081251 0.95125884
3.6493065 11.800239 -1.808468 0.95129281
3.6668603 11.785332 -1.8088104 0.95132667
3.6843994 11.770434 -1.8091526 0.95136034
3.7018116 11.755249 -1.80945 0.95139509
3.7190087 11.739463 -1.8096511 0.95143217
3.7361767 11.723681 -1.8098521 0.95146912
3.7533104 11.707925 -1.8100528 0.9515059
3.7704151 11.692173 -1.8102534 0.9515425
3.7875049 11.676445 -1.8104538 0.95157897
3.8045604 11.660732 -1.8106538 0.95161521
3.8215818 11.645039 -1.8108537 0.95165133
3.8385839 11.629355 -1.8110534 0.95168734
3.8555419 11.613671 -1.8112532 0.95172322
3.8724949 11.598012 -1.8114524 0.95175892
3.8894091 11.582368 -1.8116517 0.95179445
3.9062986 11.566733 -1.8118509 0.95182979
3.9231591 11.551118 -1.8120495 0.95186502
3.9399951 11.535522 -1.8122497 0.95190006
3.9568017 11.519951 -1.8124505 0.95193493
3.9735839 11.504384 -1.8126513 0.95196968
3.9903467 11.488832 -1.812852 0.95200425
4.0070896 11.47331 -1.8130522 0.95203859
4.0237937 11.457783 -1.8132523 0.95207292
4.0404687 11.44227 -1.8134524 0.95210701
4.0571289 11.426772 -1.8136523 0.95214099
4.0737548 11.411289 -1.8138521 0.95217484
4.0903516 11.39582 -1.8140516 0.95220852
4.1069288 11.380356 -1.8142511 0.95224208
4.1234665 11.364907 -1.8144501 0.95227545
4.1400046 11.349487 -1.814649 0.95230865
4.1565332 11.334155 -1.8148637 0.95234138
4.1731348 11.319111 -1.8151225 0.95237285
4.1897264 11.304096 -1.8153812 0.95240408
4.206284 11.289077 -1.8156395 0.95243526
4.2228174 11.274076 -1.8158975 0.95246625
4.2393408 11.259087 -1.8161556 0.95249707
4.2558351 11.244111 -1.8164133 0.95252776
4.2722898 11.229136 -1.8166709 0.95255834
4.2887354 11.21417 -1.8169285 0.9525888
4.3051515 11.199214 -1.8171856 0.95261914
4.3215427 11.184267 -1.8174429 0.9526493
4.3379197 11.169346 -1.8176996 0.95267928
4.3542724 11.154433 -1.8179562 0.95270914
4.3705955 11.139511 -1.8182129 0.95273894
4.3868895 11.124619 -1.8184692 0.95276856
4.4031739 11.109712 -1.8187256 0.95279807
4.4194236 11.094838 -1.8189815 0.95282739
4.4356589 11.079961 -1.8192374 0.95285666
4.4518552 11.065098 -1.8194931 0.95288575
4.4680614 11.050249 -1.8197485 0.95291466
4.4842091 11.035405 -1.8200037 0.95294344
4.5003662 11.020571 -1.8202589 0.95297211
4.5164695 11.005737 -1.8205141 0.95300072
4.5325537 10.990912 -1.820769 0.95302916
4.5486326 10.976098 -1.8210237 0.95305747
4.5646729 10.961318 -1.8212777 0.95308554
4.5807033 10.946518 -1.8215319 0.95311362
4.5967135 10.931738 -1.8217858 0.95314145
4.6131349 10.918003 -1.8222123 0.95316488
4.6296873 10.904629 -1.8226994 0.95318669
2.9065137 6.8132567 -1.1405246 0.97046649
2.9145997 6.7996631 -1.1399531 0.97050256
2.9226658 6.7861032 -1.1393821 0.9705385
2.9307177 6.7725778 -1.1388141 0.9705742
2.93875 6.7590818 -1.1382481 0.97060978
2.9467723 6.745615 -1.1376843 0.97064519
2.9539208 6.730278 -1.1368004 0.97068864
2.9608057 6.7144089 -1.1358235 0.9707343
2.9676611 6.6985836 -1.1348479 0.97077984
2.9745018 6.6828074 -1.1338794 0.97082508
2.9813182 6.6670847 -1.132912 0.97087008
2.9881053 6.6514063 -1.1319515 0.9709149
2.9948828 6.6357665 -1.1309923 0.97095954
3.0016358 6.6201806 -1.1300372 0.97100389
3.0083642 6.6046386 -1.1290867 0.97104812
3.0150828 6.5891552 -1.1281394 0.97109205
3.0217724 6.5737057 -1.1271958 0.9711358
3.0284424 6.5583105 -1.1262577 0.97117931
3.0350926 6.542954 -1.125322 0.97122264
3.0420361 6.5283103 -1.1245037 0.97126287
3.0494385 6.5147314 -1.1238667 0.97129846
3.0568261 6.5011959 -1.1232313 0.9713338
3.0641894 6.4876852 -1.1225985 0.97136909
3.0715332 6.4742088 -1.1219697 0.97140414
3.078877 6.4607716 -1.1213428 0.971439
3.0869384 6.4489403 -1.1209923 0.97146684
3.0953174 6.4378028 -1.1207591 0.97149163
3.1036768 6.4266748 -1.1205281 0.97151631
3.0709033 6.3308053 -1.1054982 0.97191155
3.0818701 6.3255076 -1.1062599 0.97191095
3.0928416 6.3202147 -1.1070222 0.9719103
3.1038134 6.3149118 -1.1077849 0.97190958
3.11479 6.3096142 -1.1085497 0.97190875
3.1257617 6.3043113 -1.1093156 0.97190785
3.1367431 6.2990136 -1.1100813 0.97190684
3.1477149 6.2937107 -1.1108485 0.97190577
3.1586914 6.288403 -1.1116172 0.97190464
3.1696727 6.2830954 -1.1123872 0.97190344
3.1806493 6.2777882 -1.1131567 0.97190213
3.1916258 6.2724805 -1.1139284 0.97190076
3.2026074 6.267168 -1.1147012 0.97189927
3.2136035 6.2618604 -1.1154733 0.97189772
3.2245898 6.2565479 -1.116248 0.97189611
3.2355711 6.251235 -1.1170235 0.97189438
3.2465672 6.2459226 -1.1178004 0.9718926
3.2575536 6.2406054 -1.1185782 0.97189075
3.2685449 6.2352829 -1.119356 0.97188878
3.2798631 6.2305808 -1.1202464 0.97188401
3.2912548 6.225996 -1.1211605 0.97187865
3.3026416 6.221406 -1.1220763 0.97187316
3.3140428 6.2168212 -1.1229931 0.97186762
3.3254492 6.2122364 -1.1239098 0.97186196
3.3368504 6.2076416 -1.1248301 0.97185624
3.3482616 6.2030468 -1.1257513 0.9718504
3.3596826 6.198452 -1.1266725 0.97184449
3.3715966 6.1947412 -1.1277585 0.97183454
3.3853564 6.1944089 -1.1294625 0.97180933
3.3991454 6.194077 -1.1311703 0.97178394
3.4129686 6.1937451 -1.1328824 0.97175848
3.4268064 6.193408 -1.1345985 0.97173285
3.4406738 6.1930714 -1.1363186 0.97170711
3.4545751 6.1927342 -1.1380433 0.97168124
3.4684863 6.1924024 -1.1397721 0.97165525
3.4824414 6.1920605 -1.1415054 0.97162908
3.4964111 6.1917186 -1.1432419 0.97160286
3.5104101 6.1913719 -1.1449844 0.97157651
3.5244384 6.1910348 -1.1467294 0.97154993
3.538496 6.1906881 -1.1484801 0.97152328
3.5525732 6.1903467 -1.1502339 0.97149652
3.5484326 6.15833 -1.146099 0.97161347
3.5669384 6.1656637 -1.1492844 0.97155166
3.5855322 6.1730323 -1.1524874 0.97148943
3.6042137 6.1804395 -1.1557049 0.97142684
3.6229687 6.1878757 -1.1589375 0.9713639
3.6370995 6.187324 -1.1606815 0.9713372
3.6509373 6.186245 -1.1623306 0.97131282
3.6647997 6.1851611 -1.1639835 0.97128832
3.6787012 6.1840768 -1.1656404 0.97126365
3.6926219 6.1829929 -1.1673017 0.97123885
3.7334373 6.2267184 -1.1774408 0.9710083
3.752085 6.2332177 -1.1805617 0.97094822
3.7708006 6.2397408 -1.1836953 0.97088778
3.7896092 6.2462988 -1.1868452 0.97082698
3.8084912 6.2528806 -1.1900067 0.97076583
3.827456 6.2594919 -1.1931858 0.97070438
3.846499 6.2661328 -1.1963784 0.97064257
3.8656347 6.2727976 -1.1995852 0.9705804
3.8891406 6.2864499 -1.2041419 0.97048575
3.9233055 6.3170896 -1.2119704 0.97031212
3.957876 6.3480859 -1.2198908 0.9701364
3.9928758 6.3794823 -1.2279128 0.96995842
4.0279932 6.4107518 -1.2359378 0.9697805
4.0593505 6.4357858 -1.2427862 0.9696312
4.0910497 6.4611034 -1.2497035 0.9694801
4.123076 6.4866648 -1.2566934 0.96932751
4.4403515 6.9589844 -1.3504095 0.96709484
4.4325342 6.9201512 -1.3450705 0.9672392
4.4247851 6.88166 -1.3397763 0.96738213
4.4171042 6.8434958 -1.3345315 0.96752387
4.4094872 6.8056736 -1.329334 0.96766418
4.4017725 6.7679195 -1.3241311 0.96780449
4.3944678 6.7310157 -1.319077 0.96794099
4.3870554 6.6941795 -1.314018 0.96807748
4.3797021 6.6576462 -1.3090017 0.96821272
4.3724122 6.6214161 -1.3040302 0.96834677
4.3651805 6.5855026 -1.2991018 0.96847963
4.4299755 6.6580372 -1.3155829 0.96810138
4.4588037 6.6761131 -1.3213408 0.96797919
4.4878416 6.6943212 -1.3271451 0.96785605
4.498486 6.6849756 -1.3274986 0.96786278
4.4931297 6.6519723 -1.3231426 0.96798146
4.4878321 6.6192236 -1.3188223 0.96809918
4.5585499 6.6984372 -1.3368253 0.96768576
4.5709128 6.6915035 -1.3376734 0.96768045
4.5832858 6.6845798 -1.3385247 0.96767509
4.5956593 6.6776462 -1.3393772 0.96766961
4.6080418 6.6707129 -1.3402302 0.967664
4.62042 6.6637745 -1.3410859 0.9676584
4.5887742 6.5935645 -1.3291894 0.96795505
4.6079493 6.5965672 -1.3320315 0.967902
4.6271873 6.5995798 -1.3348876 0.9678486
4.6464939 6.6025925 -1.3377529 0.96779501
4.6658592 6.6056247 -1.3406304 0.96774107
4.6853075 6.6086717 -1.3435191 0.96768689
4.7048192 6.6117234 -1.3464203 0.96763241
4.7134571 6.5994725 -1.3462069 0.96765149
4.7164063 6.5793262 -1.3443805 0.96770865
4.7193604 6.5592575 -1.342562 0.96776545
4.7222996 6.5392628 -1.3407511 0.96782196
4.7252293 6.5193357 -1.3389499 0.96787822
4.7281494 6.4994774 -1.3371539 0.96793419
4.7310596 6.4796872 -1.335367 0.96798986
4.7339649 6.4599657 -1.3335871 0.96804523
4.7368455 6.4403272 -1.3318145 0.96810031
4.7397265 6.420742 -1.3300489 0.96815515
4.7703905 6.4387255 -1.3360733 0.96802646
4.7815723 6.430337 -1.3366342 0.96802634
4.7927489 6.4219432 -1.3371969 0.96802622
4.8039451 6.4135547 -1.3377606 0.96802586
4.8151269 6.4051709 -1.3383262 0.96802551
4.8263035 6.3967676 -1.3388909 0.96802509
4.8375001 6.3883786 -1.3394587 0.96802449
4.8486767 6.3799753 -1.3400275 0.9680239
4.8598728 6.371582 -1.3405963 0.96802318
4.8710546 6.3631835 -1.3411663 0.96802235
4.882236 6.3547897 -1.3417386 0.96802145
4.8934226 6.3463817 -1.3423119 0.96802044
4.9046092 6.3379884 -1.3428864 0.96801937
4.9158006 6.3295751 -1.3434625 0.96801817
4.9269919 6.3211718 -1.3440387 0.96801692
4.9381785 6.3127685 -1.3446167 0.96801555
4.9493747 6.3043551 -1.3451946 0.96801406
4.9603028 6.2956152 -1.3457047 0.96801418
4.970366 6.2857714 -1.3459786 0.96801972
4.980669 6.2762499 -1.3463227 0.96802354
4.9915085 6.2674069 -1.3468124 0.9680239
5.0023632 6.2585592 -1.3473061 0.96802413
5.0132174 6.2497168 -1.3477997 0.96802431
5.0240574 6.2408738 -1.3482944 0.96802437
5.0349073 6.2320313 -1.3487903 0.96802431
5.045752 6.2231884 -1.349287 0.96802419
5.0565968 6.2143407 -1.3497854 0.96802402
5.0674462 6.205493 -1.3502846 0.96802372
5.0782862 6.1966453 -1.3507856 0.9680233
5.0891356 6.1877975 -1.3512878 0.96802282
5.0999851 6.1789403 -1.3517908 0.96802223
5.1108351 6.1700878 -1.3522949 0.96802157
5.1216893 6.1612353 -1.3527993 0.9680208
5.1325293 6.1523829 -1.3533065 0.96801996
5.1433787 6.1435304 -1.3538142 0.96801901
5.1542234 6.1346679 -1.3543229 0.968018
5.1650782 6.1258106 -1.3548336 0.96801686
5.1759276 6.1169529 -1.3553452 0.96801561
5.1876559 6.1091256 -1.3560894 0.968009
5.199873 6.10186 -1.3569586 0.96799934
