# .PCD v0.7 - Point Cloud Data file format
VERSION 0.7
FIELDS x y z intensity
SIZE 4 4 4 4
TYPE F F F F
COUNT 1 1 1 1
WIDTH 1155
HEIGHT 1
VIEWPOINT 0 0 0 1 0 0 0
POINTS 1155
DATA ascii
-29.022865 6.8736424 2.3392742 0.88721383
-29.015526 6.9147043 2.34605 0.88720363
-28.644341 19.938477 4.6155338 0.86864799
-28.544149 19.924717 4.6092615 0.86896116
-27.006723 18.904596 4.3703566 0.87545013
-26.895351 18.879526 4.3616657 0.8758207
-26.796186 18.862728 4.3548965 0.87613916
-26.697607 18.846025 4.3481655 0.87645572
-26.599594 18.829418 4.3414836 0.87677032
-26.502094 18.812901 4.3348279 0.87708312
-26.40519 18.796478 4.3282137 0.87739402
-26.308798 18.780151 4.3216348 0.87770313
-26.212992 18.763945 4.3151002 0.87801027
-26.117699 18.747816 4.3085995 0.87831569
-26.022959 18.731787 4.3021345 0.87861919
-25.92873 18.715837 4.2957015 0.87892097
-25.841713 18.704809 4.2904201 0.87919176
-25.76977 18.704496 4.2875934 0.87939674
-25.698133 18.704189 4.2847843 0.8796007
-25.626766 18.703876 4.282001 0.87980378
-25.555677 18.703569 4.2792106 0.88000596
-25.484829 18.70326 4.2764182 0.88020724
-25.414291 18.702953 4.2736673 0.88040751
-25.343994 18.70265 4.2709165 0.88060695
-25.27396 18.702339 4.2681642 0.88080555
-25.204199 18.702036 4.2654238 0.88100314
-25.134668 18.701733 4.2626996 0.88119996
-25.065434 18.701435 4.2599831 0.88139582
-24.996429 18.701138 4.2572727 0.88159084
-24.927713 18.70084 4.2545795 0.88178498
-24.859213 18.700542 4.2518907 0.88197827
-24.790972 18.700243 4.2492108 0.88217074
-24.723017 18.699951 4.2465415 0.88236219
-24.655287 18.699654 4.2438812 0.88255292
-24.587803 18.69936 4.2412314 0.88274282
-24.520561 18.699072 4.2385907 0.88293183
-24.463583 18.70644 4.2376876 0.88307506
-24.413568 18.719006 4.2379737 0.88318717
-24.363661 18.731541 4.2382569 0.88329887
-24.313877 18.744049 4.2385397 0.8834101
-24.264204 18.756529 4.2388248 0.8835209
-24.214624 18.768984 4.2391019 0.88363135
-24.165174 18.781403 4.2393818 0.88374132
-24.115805 18.793806 4.239656 0.88385093
-24.066586 18.806171 4.239933 0.88396007
-24.01745 18.818525 4.2402148 0.88406879
-23.968447 18.830858 4.2404866 0.88417703
-23.919559 18.843166 4.2407694 0.88428485
-23.870781 18.855444 4.241044 0.88439226
-23.822094 18.867701 4.2413206 0.88449925
-23.780552 18.885517 4.2428465 0.88457376
-23.744022 18.907244 4.2452583 0.88462538
-23.720957 18.939667 4.2500706 0.88461542
-23.708652 18.98068 4.2568135 0.884556
-23.702938 19.027065 4.26475 0.88446605
-23.702871 19.078045 4.2737136 0.88434994
-23.702793 19.129135 4.2826929 0.88423347
-23.702719 19.1803 4.2916932 0.88411659
-23.702646 19.231586 4.3007092 0.88399929
-23.702562 19.282984 4.3097477 0.88388157
-23.70249 19.334448 4.3187938 0.88376355
-23.702412 19.38603 4.3278565 0.88364506
-23.702343 19.437717 4.3369403 0.88352615
-23.702261 19.489506 4.346045 0.88340688
-23.702187 19.541395 4.3551612 0.88328713
-23.702108 19.593384 4.3643003 0.88316703
-23.70203 19.645483 4.3734517 0.88304651
-23.701952 19.697689 4.382618 0.88292557
-23.701874 19.749987 4.3918071 0.88280427
-23.701801 19.802412 4.4010148 0.8826825
-23.701717 19.854916 4.4102402 0.88256037
-23.701645 19.907534 4.4194827 0.88243777
-23.701567 19.960285 4.4287405 0.88231474
-23.701488 20.013126 4.4380202 0.8821913
-23.70141 20.066065 4.4473186 0.88206744
-23.701332 20.119131 4.4566312 0.88194317
-23.70125 20.172283 4.4659648 0.88181853
-23.701172 20.22555 4.4753127 0.88169342
-23.701094 20.278944 4.4846864 0.88156784
-23.701063 20.332489 4.4940834 0.88144165
-23.701063 20.386162 4.5035052 0.88131487
-23.701059 20.439945 4.5129409 0.88118768
-23.701054 20.493832 4.5224013 0.88106006
-23.701054 20.547861 4.5318809 0.88093191
-23.701054 20.602001 4.5413775 0.88080335
-23.70105 20.65621 4.5508933 0.88067448
-23.701044 20.710581 4.5604291 0.88054508
-23.70104 20.765053 4.5699806 0.88041526
-23.70104 20.819635 4.5795612 0.88028497
-23.70104 20.874321 4.5891514 0.88015425
-23.701035 20.929155 4.5987649 0.88002306
-23.701029 20.984108 4.6083994 0.8798914
-23.701025 21.039148 4.6180501 0.87975937
-23.701025 21.094341 4.6277242 0.87962675
-23.701019 21.149618 4.6374202 0.87949383
-23.701025 21.205029 4.6471329 0.87936032
-23.701015 21.260586 4.6568656 0.87922639
-23.70101 21.316244 4.6666193 0.87909204
-23.701015 21.372017 4.6763906 0.87895721
-23.701015 21.427927 4.6861863 0.87882191
-23.701006 21.483942 4.6959982 0.87868613
-23.675131 21.516586 4.7007222 0.87867409
-23.613134 21.516325 4.6982441 0.87883544
-23.571371 21.534349 4.6997252 0.87889969
-23.571127 21.590361 4.7095213 0.87876385
-23.570889 21.646471 4.7193556 0.87862754
-23.541636 21.67602 4.7233505 0.87863082
-23.480112 21.675751 4.7208786 0.87879002
-23.418789 21.675488 4.7184114 0.87894851
-23.357622 21.675219 4.7159505 0.87910646
-23.29665 21.674955 4.7134919 0.8792637
-23.235844 21.674692 4.7110438 0.8794204
-23.175243 21.674429 4.7086015 0.87957639
-23.114803 21.67417 4.7061653 0.87973183
-23.054531 21.673906 4.703732 0.87988669
-22.994457 21.673641 4.7013063 0.88004082
-22.93453 21.673384 4.6988873 0.88019449
-22.874794 21.673124 4.696475 0.88034743
-22.815224 21.672865 4.6940556 0.8804999
-22.755835 21.672607 4.6916599 0.88065165
-22.696611 21.672354 4.6892643 0.88080281
-22.637573 21.672094 4.6868773 0.88095343
-22.578691 21.671841 4.6844888 0.8811034
-22.519976 21.671581 4.6821094 0.88125283
-22.46143 21.671333 4.6797328 0.88140166
-22.403046 21.671078 4.6773667 0.88154995
-22.344833 21.670824 4.6750069 0.8816976
-22.286772 21.670576 4.6726484 0.88184476
-22.229311 21.670727 4.6703577 0.88198918
-22.173164 21.672022 4.6683335 0.88212729
-22.124004 21.68001 4.6678271 0.88223064
-22.12377 21.735945 4.6775527 0.88208944
-22.071045 21.740332 4.6762147 0.88221055
-22.013784 21.740082 4.6738768 0.88235462
-21.956669 21.739834 4.6715498 0.8824982
-21.899712 21.73959 4.6692324 0.88264126
-21.842924 21.73934 4.6669078 0.88278365
-21.786264 21.739096 4.6645942 0.88292563
-21.72978 21.738852 4.6622896 0.88306701
-21.673452 21.738607 4.6599851 0.8832078
-21.61727 21.738359 4.6576834 0.88334811
-21.561226 21.738119 4.6553888 0.88348788
-21.505356 21.737875 4.6531014 0.88362712
-21.449629 21.737631 4.650826 0.88376576
-21.394062 21.737392 4.6485481 0.88390392
-21.338636 21.737152 4.6462736 0.88404155
-21.283363 21.736914 4.6440043 0.88417864
-21.228237 21.73667 4.6417336 0.88431519
-21.173265 21.736435 4.6394777 0.88445121
-21.118437 21.736197 4.637219 0.88458675
-20.996717 21.666782 4.6201906 0.88506669
-20.940874 21.665009 4.6176209 0.88520843
-20.886377 21.664492 4.6153641 0.88534343
-20.832304 21.664257 4.6131363 0.88547653
-20.778364 21.664022 4.6108994 0.88560909
-20.724575 21.663788 4.6087046 0.88574117
-20.670923 21.663559 4.606482 0.88587278
-20.617413 21.663324 4.6042738 0.88600385
-20.564053 21.663095 4.6020603 0.88613439
-20.510811 21.662861 4.5998588 0.8862645
-20.457699 21.662632 4.5976601 0.88639414
-20.404755 21.662401 4.59547 0.88652325
-20.351929 21.662172 4.5932784 0.88665181
-20.299242 21.661943 4.5910926 0.88677996
-20.246689 21.661711 4.5889063 0.88690764
-20.194258 21.661486 4.5867343 0.88703483
-20.141993 21.661263 4.5845633 0.88716149
-20.089834 21.661032 4.5823922 0.88728774
-20.037792 21.660809 4.580225 0.8874135
-19.985909 21.660583 4.5780735 0.88753879
-19.93416 21.660358 4.5759115 0.88766354
-19.882519 21.660133 4.5737553 0.88778794
-19.831024 21.659908 4.5716052 0.8879118
-19.779657 21.659689 4.569459 0.88803518
-19.728397 21.659466 4.5673294 0.8881582
-19.677284 21.659245 4.5651855 0.88828069
-19.668257 21.705326 4.5728106 0.88817799
-19.668013 21.76124 4.5824962 0.88802773
-19.667782 21.817299 4.5922108 0.88787693
-19.667534 21.873512 4.6019483 0.88772559
-19.667294 21.929878 4.6117048 0.88757366
-19.667046 21.986399 4.6214871 0.88742125
-19.666796 22.043072 4.6312995 0.88726825
-19.666552 22.099916 4.641139 0.88711458
-19.666304 22.156897 4.651 0.88696045
-19.666059 22.214043 4.6608896 0.88680571
-19.66581 22.271347 4.6708012 0.88665038
-19.665556 22.328793 4.6807418 0.88649458
-19.665302 22.386425 4.6907105 0.88633811
-19.665058 22.444208 4.7006998 0.88618106
-19.664808 22.502157 4.7107148 0.8860234
-19.664551 22.560253 4.7207594 0.88586521
-19.664301 22.618515 4.730834 0.88570642
-19.664047 22.676949 4.7409296 0.88554704
-19.663799 22.735538 4.7510529 0.88538706
-19.663534 22.794336 4.7612109 0.88522643
-19.66328 22.853231 4.7713819 0.88506532
-19.663033 22.912344 4.7815886 0.88490349
-19.662773 22.971621 4.7918262 0.88474107
-19.662514 23.031052 4.8020883 0.88457811
-19.662256 23.090666 4.8123775 0.88441449
-19.662109 23.15056 4.8227344 0.88424969
-19.66268 23.211506 4.83324 0.88408023
-19.663252 23.272596 4.843854 0.88391018
-19.725922 23.407595 4.8697896 0.88339454
-19.725655 23.468264 4.8802509 0.88322735
-19.725389 23.529104 4.8907466 0.88305956
-19.725126 23.590136 4.9012709 0.88289106
-19.724863 23.651344 4.9118209 0.88272196
-19.7246 23.712753 4.9224 0.88255215
-19.724331 23.774302 4.9330087 0.8823818
-19.724062 23.836054 4.9436502 0.88221079
-19.723799 23.897974 4.9543209 0.88203913
-19.723524 23.960087 4.9650183 0.88186681
-19.723261 24.022402 4.975749 0.88169372
-19.722988 24.0849 4.9865084 0.88152009
-19.722713 24.14757 4.9973044 0.88134575
-19.718096 24.205105 5.0070233 0.88119531
-19.666407 24.204885 5.0048251 0.88131064
-19.658379 24.258369 5.01366 0.8811788
-19.657265 24.32056 5.024281 0.88100708
-19.65666 24.383574 5.0351505 0.88083172
-19.656376 24.44717 5.0460854 0.88065392
-19.656103 24.510977 5.0570588 0.8804754
-19.655819 24.574986 5.0680652 0.88029611
-19.655546 24.63916 5.0790987 0.88011622
-19.655264 24.703577 5.0901642 0.87993556
-19.654985 24.768179 5.1012678 0.87975425
-19.654707 24.832985 5.1124005 0.87957215
-19.654428 24.897974 5.1235609 0.87938941
-19.65415 24.963165 5.1347618 0.879206
-19.653866 25.028566 5.1459923 0.87902182
-19.653578 25.094181 5.157258 0.87883693
-19.65329 25.159981 5.1685557 0.87865132
-19.653008 25.226007 5.1798878 0.878465
-17.73502 22.824236 4.6846933 0.88947207
-17.682095 22.816257 4.6810441 0.88961029
-17.629326 22.808271 4.677393 0.88974798
-17.576689 22.80031 4.6737537 0.88988519
-17.524189 22.792377 4.670126 0.89002192
-17.47183 22.784424 4.6664906 0.89015824
-17.4196 22.776506 4.6628718 0.89029402
-17.367529 22.768612 4.6592631 0.8904292
-17.315596 22.760727 4.6556582 0.89056396
-17.263779 22.752844 4.6520529 0.89069831
-17.212139 22.744991 4.6484652 0.89083207
-17.160585 22.737141 4.6448741 0.89096546
-17.109219 22.729345 4.6413093 0.8910982
-17.05792 22.721491 4.6377201 0.89123076
-17.006796 22.713718 4.6341639 0.89136261
-16.955801 22.705923 4.6306009 0.8914941
-16.904911 22.698137 4.6270399 0.89162517
-16.854179 22.690376 4.6234903 0.8917557
-16.803555 22.682644 4.6199536 0.89188582
-16.75309 22.674906 4.6164165 0.8920154
-16.702753 22.667194 4.6128898 0.89214456
-16.652519 22.659492 4.609365 0.89227325
-16.602411 22.651777 4.6058388 0.89240164
-16.552471 22.644129 4.6023374 0.89252931
-16.502592 22.63644 4.5988245 0.89265686
-16.452885 22.628801 4.5953293 0.8927837
-16.403311 22.621168 4.5918384 0.89291018
-16.353842 22.613537 4.5883484 0.89303625
-16.304482 22.605921 4.5848622 0.89316189
-16.255253 22.598324 4.581389 0.89328706
-16.206181 22.590744 4.5779219 0.89341176
-16.157217 22.58317 4.5744562 0.89353603
-16.108345 22.57559 4.5709891 0.89366001
-16.059605 22.568048 4.5675387 0.89378345
-16.011011 22.560522 4.564095 0.89390641
-15.962504 22.552992 4.5606508 0.89402902
-15.91413 22.545467 4.557209 0.89415121
-15.865869 22.537971 4.5537782 0.89427298
-15.817744 22.530497 4.5503583 0.89439422
-15.769726 22.523018 4.546936 0.89451516
-15.721816 22.515547 4.54352 0.89463568
-15.674018 22.508095 4.5401082 0.89475578
-15.626338 22.500639 4.5366974 0.89487553
-15.578784 22.493225 4.5333052 0.89499474
-15.531333 22.485804 4.5299082 0.89511365
-15.484018 22.478397 4.5265193 0.89523202
-15.436796 22.471008 4.5231366 0.8953501
-15.389677 22.463627 4.5197577 0.89546776
-15.34268 22.456242 4.516377 0.89558506
-15.295791 22.448877 4.5130081 0.89570194
-15.249013 22.441519 4.5096436 0.89581841
-15.202373 22.434189 4.5062895 0.8959344
-15.155829 22.42687 4.5029368 0.89605004
-15.109385 22.419546 4.4995852 0.89616531
-15.063037 22.412233 4.4962363 0.89628029
-15.016816 22.404945 4.4929013 0.89639473
-14.970708 22.397661 4.4895687 0.89650881
-14.924658 22.390368 4.4862299 0.89662272
-14.878774 22.383102 4.4829054 0.89673603
-14.832983 22.375845 4.4795847 0.89684898
-14.787285 22.368612 4.4762716 0.89696151
-14.741699 22.361376 4.4729605 0.89707375
-14.6962 22.354139 4.4696455 0.89718562
-14.650849 22.346952 4.4663558 0.89729697
-14.605547 22.339731 4.463047 0.89740819
-14.560375 22.332539 4.4597569 0.89751887
-14.515303 22.325346 4.4564633 0.89762926
-14.470342 22.318178 4.4531808 0.89773917
-14.425478 22.31102 4.4499054 0.89784878
-14.380708 22.303858 4.4466224 0.89795804
-14.336044 22.296726 4.4433579 0.89806688
-14.29147 22.289579 4.4400868 0.89817548
-14.247011 22.282461 4.4368253 0.8982836
-14.202651 22.275347 4.4335675 0.89839137
-14.158383 22.268227 4.4303079 0.89849889
-14.114199 22.261126 4.4270558 0.898606
-14.070136 22.254028 4.4238062 0.89871275
-14.026152 22.246967 4.4205709 0.89881909
-13.982285 22.239882 4.4173293 0.89892519
-13.938511 22.232832 4.4140968 0.8990308
-13.894829 22.225777 4.4108686 0.89913613
-13.851231 22.218725 4.4076381 0.89924121
-13.807714 22.211695 4.4044156 0.89934587
-13.764336 22.204668 4.4012003 0.89945012
-13.721015 22.197645 4.3979826 0.89955413
-13.677802 22.190639 4.3947725 0.89965773
-13.634697 22.183645 4.3915687 0.89976096
-13.591655 22.176649 4.3883619 0.89986396
-13.548716 22.169653 4.385159 0.89996666
-13.505859 22.162666 4.381958 0.90006894
-13.463124 22.155718 4.3787742 0.9001708
-13.420459 22.148754 4.375587 0.90027243
-13.3779 22.141804 4.3724027 0.9003737
-13.335424 22.134861 4.3692222 0.90047467
-13.293027 22.127943 4.3660488 0.90057522
-13.250712 22.12101 4.3628693 0.90067559
-13.208525 22.114092 4.3597012 0.90077549
-13.166391 22.107187 4.3565345 0.90087515
-13.124355 22.100288 4.3533735 0.90097445
-13.082402 22.093393 4.350215 0.90107352
-13.040546 22.086504 4.3470602 0.90117216
-12.998769 22.079624 4.3439054 0.90127057
-12.95708 22.072748 4.3407545 0.90136862
-12.915478 22.065893 4.3376131 0.90146631
-12.873964 22.059031 4.3344674 0.90156376
-12.832539 22.052195 4.3313336 0.9016608
-12.791201 22.045345 4.328196 0.9017576
-12.749922 22.038496 4.3250556 0.90185422
-12.708769 22.031689 4.3219371 0.90195024
-12.66767 22.024872 4.3188119 0.90204608
-12.626655 22.018047 4.3156819 0.90214175
-12.585737 22.011255 4.3125691 0.90223694
-12.544873 22.004438 4.309444 0.90233195
-12.50413 21.997665 4.3063383 0.90242654
-12.463467 21.990889 4.3032303 0.90252078
-12.422861 21.9841 4.3001204 0.90261489
-12.382353 21.977339 4.2970219 0.90270859
-12.341904 21.970566 4.2939162 0.90280205
-12.301553 21.963814 4.2908173 0.90289521
-12.261289 21.957069 4.2877283 0.90298802
-12.221088 21.950317 4.2846341 0.90308058
-12.180982 21.943598 4.2815523 0.90317279
-12.140932 21.936865 4.2784648 0.90326476
-12.100966 21.930136 4.2753787 0.90335649
-12.061098 21.923418 4.2722974 0.90344787
-12.021294 21.916698 4.2692189 0.90353894
-11.981586 21.910019 4.2661538 0.90362966
-11.941934 21.903324 4.2630825 0.9037202
-11.902372 21.896631 4.260015 0.90381038
-11.862871 21.889931 4.2569447 0.90390038
-11.823452 21.88327 4.2538881 0.90398997
-11.784116 21.8766 4.2508292 0.90407938
-11.744843 21.86993 4.2477708 0.90416849
-11.705649 21.863281 4.2447171 0.90425724
-11.666553 21.856611 4.2416615 0.90434581
-11.627515 21.849976 4.2386155 0.90443403
-11.588545 21.84334 4.2355723 0.904522
-11.549648 21.836699 4.2325258 0.90460968
-11.510816 21.830063 4.2294812 0.90469718
-11.47208 21.823446 4.2264466 0.90478426
-11.433398 21.81682 4.2234054 0.90487123
-11.394814 21.810215 4.220377 0.90495777
-11.356279 21.803623 4.2173524 0.90504402
-11.317817 21.797007 4.2143178 0.90513015
-11.279458 21.790415 4.211297 0.90521592
-11.241128 21.783827 4.2082705 0.90530145
-11.202895 21.777241 4.2052498 0.90538669
-11.164726 21.770678 4.2022376 0.90547162
-11.126631 21.764086 4.1992145 0.90555638
-11.088593 21.757528 4.1962028 0.90564084
-11.050625 21.750961 4.1931911 0.90572506
-11.012734 21.744398 4.1901798 0.90580904
-10.974916 21.737862 4.187181 0.90589261
-10.937168 21.731333 4.1841779 0.905976
-10.899463 21.724785 4.1811752 0.90605921
-10.86186 21.718243 4.1781726 0.90614206
-10.824316 21.711718 4.175179 0.90622467
-10.786817 21.705194 4.172184 0.9063071
-10.749424 21.698671 4.1691895 0.90638918
-10.71208 21.692177 4.1662087 0.90647101
-10.674805 21.685663 4.163219 0.90655261
-10.637588 21.679159 4.160234 0.90663397
-10.60043 21.672642 4.1572433 0.90671515
-10.563359 21.666162 4.1542702 0.90679592
-10.526352 21.659672 4.1512918 0.9068765
-10.489399 21.653183 4.148313 0.90695691
-10.452515 21.646698 4.1453347 0.90703702
-10.415693 21.640234 4.1423655 0.90711683
-10.37895 21.63377 4.1393986 0.9071964
-10.342251 21.627295 4.1364255 0.90727586
-10.30562 21.62084 4.1334605 0.90735495
-10.269082 21.61438 4.1304975 0.90743381
-10.232558 21.607924 4.1275301 0.90751249
-10.196123 21.601479 4.1245718 0.90759087
-10.15976 21.595039 4.1216154 0.90766895
-10.123447 21.588608 4.1186619 0.90774685
-10.087197 21.582163 4.1157026 0.90782458
-10.051025 21.575741 4.1127548 0.90790194
-10.014873 21.569305 4.1097975 0.90797925
-9.9788332 21.562885 4.1068492 0.90805614
-9.942832 21.556475 4.1039076 0.90813285
-9.9069042 21.550053 4.1009607 0.90820932
-9.8710155 21.543657 4.0980201 0.90828556
-9.8351955 21.537251 4.095077 0.90836161
-9.7994289 21.530844 4.0921364 0.90843737
-9.7637396 21.524458 4.0892005 0.90851289
-9.7281103 21.51807 4.0862679 0.90858817
-9.692524 21.511679 4.0833354 0.90866327
-9.6570168 21.505293 4.0804005 0.90873814
-9.6215477 21.498926 4.0774722 0.90881276
-9.5861664 21.492554 4.0745449 0.90888709
-9.5508099 21.486166 4.0716157 0.90896136
-9.5155268 21.479799 4.0686884 0.90903527
-9.4803028 21.473436 4.0657673 0.909109
-9.4451418 21.467075 4.0628457 0.90918249
-9.4100046 21.460712 4.0599189 0.9092558
-9.37498 21.45437 4.0570083 0.90932876
-9.3399754 21.448017 4.0540891 0.9094016
-9.3050442 21.441689 4.0511799 0.90947413
-9.2701464 21.435331 4.0482602 0.90954655
-9.235322 21.429003 4.045352 0.90961868
-9.2005415 21.422665 4.0424399 0.90969068
-9.1658449 21.416338 4.0395322 0.90976232
-9.1311712 21.410015 4.0366254 0.90983385
-9.0965919 21.40369 4.033721 0.90990508
-9.0620308 21.397364 4.0308132 0.90997618
-9.0275488 21.391054 4.0279126 0.91004699
-8.9931002 21.384741 4.025012 0.91011763
-8.9587154 21.378422 4.0221076 0.91018808
-8.9243994 21.372139 4.0192184 0.91025817
-8.890132 21.36582 4.0163178 0.91032821
-8.8558979 21.359526 4.0134249 0.91039795
-8.821743 21.353222 4.0105281 0.91046757
-8.7876272 21.346949 4.0076413 0.91053683
-8.7535448 21.340668 4.0047512 0.91060597
-8.7195559 21.334379 4.0018625 0.91067487
-8.685586 21.328091 3.9989693 0.91074365
-8.6516895 21.321812 3.9960849 0.91081214
-8.6178274 21.315546 3.9932051 0.91088039
-8.5840425 21.309261 3.9903164 0.91094851
-8.5502977 21.303003 3.9874387 0.91101635
-8.516592 21.296722 3.9845521 0.91108412
-8.482954 21.290474 3.9816763 0.91115147
-8.4493752 21.284204 3.9787979 0.91121876
-8.4158249 21.277945 3.97592 0.91128588
-8.3823481 21.271698 3.9730482 0.91135263
-8.348896 21.265444 3.9701698 0.91141933
-8.3155079 21.259199 3.9672976 0.91148579
-8.2821627 21.252943 3.9644229 0.91155207
-8.2488813 21.246708 3.961556 0.91161805
-8.2156439 21.240459 3.958683 0.91168392
-8.1824512 21.234222 3.9558151 0.9117496
-8.1493111 21.227993 3.9529507 0.91181505
-8.1162109 21.221762 3.9500852 0.91188031
-8.0831738 21.215532 3.947222 0.91194534
-8.0501852 21.209307 3.9443569 0.91201019
-8.0172358 21.203085 3.9414949 0.91207486
-7.9843359 21.196856 3.9386318 0.9121393
-7.9514842 21.190639 3.9357729 0.91220361
-7.9187012 21.184429 3.9329152 0.91226763
-7.8859472 21.178226 3.9300625 0.91233146
-7.8532419 21.17201 3.9272029 0.91239518
-7.8205905 21.165791 3.9243441 0.91245866
-7.7879834 21.159599 3.921495 0.9125219
-7.755415 21.153383 3.918638 0.91258508
-7.7229004 21.147186 3.9157858 0.91264796
-7.6904297 21.140995 3.9129367 0.91271067
-7.6579881 21.134794 3.9100826 0.91277325
-7.6256247 21.128609 3.9072385 0.91283554
-7.5932956 21.122412 3.904388 0.91289771
-7.5610104 21.116224 3.90154 0.91295969
-7.5287642 21.110039 3.8986948 0.91302145
-7.4965625 21.103851 3.895848 0.91308308
-7.4644284 21.097681 3.8930087 0.91314441
-7.4323239 21.091499 3.8901651 0.91320562
-7.4065137 21.10313 3.8906069 0.91319668
-7.4061422 21.187613 3.9044724 0.91290152
-7.405776 21.272621 3.9184139 0.91260457
-7.4054098 21.358301 3.9324782 0.91230518
-7.4050293 21.444536 3.9466219 0.91200382
-7.7681832 22.588535 4.1553302 0.90757167
-7.7677832 22.680351 4.1703849 0.90725219
-7.7673826 22.77284 4.1855497 0.90693039
-7.7669821 22.865995 4.2008238 0.90660626
-7.766582 22.959843 4.2162032 0.90627962
-7.7661719 23.05435 4.2316914 0.90595073
-7.7657614 23.149605 4.2473001 0.9056192
-7.7653418 23.245584 4.2630258 0.90528518
-7.7649264 23.342264 4.2788625 0.90494865
-7.7645016 23.439653 4.2948179 0.90460968
-7.7365818 23.454437 4.2956233 0.90459037
-7.7046676 23.457088 4.2942047 0.90461785
-7.6727633 23.45973 4.2927856 0.9046452
-7.6408982 23.462387 4.2913637 0.90467232
-7.6090331 23.465034 4.2899432 0.90469933
-7.5772071 23.467676 4.2885251 0.90472621
-7.5453906 23.470331 4.2871022 0.90475285
-7.5135837 23.472992 4.2856793 0.90477937
-7.481792 23.475649 4.284256 0.90480572
-7.4500389 23.4783 4.2828336 0.90483189
-7.4183006 23.480961 4.2814083 0.90485787
-7.3960643 23.513828 4.2854776 0.90476745
-7.3956151 23.616503 4.3022342 0.90440828
-10.670791 34.226425 6.2323227 0.86454165
-10.640937 34.282749 6.2397852 0.86438423
-10.610991 34.339252 6.2472677 0.8642261
-10.581 34.395855 6.2547617 0.86406755
-10.550894 34.452644 6.2622776 0.86390835
-10.520732 34.509548 6.2698092 0.86374861
-10.421543 34.339405 6.2360926 0.86442119
-10.376387 34.346447 6.2345691 0.86444372
-10.313046 34.293053 6.222075 0.86468756
-10.286084 34.360527 6.2315149 0.86448818
-10.37913 34.831207 6.3140292 0.86281371
-10.293242 34.702858 6.2879257 0.8633309
-9.7597456 33.057186 5.9870348 0.86941415
-10.12353 34.449268 6.23634 0.86435294
-9.7683249 33.39624 6.0429735 0.86825871
-9.5486517 32.798752 5.9321728 0.87050068
-9.8739843 34.07637 6.160459 0.86585671
-9.6634474 33.507889 6.0549459 0.86798489
-10.064023 35.06295 6.3330736 0.86234707
-10.029658 35.110168 6.3387194 0.86222166
-9.9951954 35.157497 6.3443785 0.86209577
-9.9606838 35.204918 6.3500485 0.86196941
-9.9261036 35.252415 6.3557224 0.86184269
-9.8914452 35.300011 6.3614001 0.86171556
-9.8567085 35.347717 6.3670907 0.86158794
-9.8219337 35.395489 6.3727856 0.86145997
-9.1575098 33.163456 5.9681931 0.86964208
-9.1099072 33.154121 5.9637818 0.86971885
-9.0623779 33.144791 5.9593787 0.86979538
-9.0149021 33.135487 5.9549742 0.86987162
-8.9674902 33.12619 5.9505758 0.86994755
-9.6677341 35.892395 6.4445286 0.8599298
-9.6220503 35.903214 6.4435043 0.85993516
-9.4458447 35.424427 6.3546653 0.86171108
-9.7689552 36.822796 6.6024694 0.85670811
-9.3399019 35.38567 6.3418651 0.86193812
-9.6737404 36.838806 6.5992527 0.85673982
-9.2265081 35.317123 6.3237476 0.8622719
-9.5785351 36.854805 6.5960279 0.85677063
-9.5309763 36.862797 6.5944128 0.85678577
-9.4833889 36.8708 6.5927906 0.85680068
-9.4221678 36.825386 6.5816236 0.85700715
-9.3882904 36.886787 6.589541 0.85682988
-9.3407373 36.894787 6.5879111 0.85684419
-9.2931881 36.902782 6.5862789 0.85685825
-9.2456932 36.910767 6.5846496 0.85687214
-9.198164 36.918755 6.5830102 0.85688585
-9.1506643 36.926743 6.5813742 0.85689926
-9.1031342 36.934734 6.5797276 0.85691255
-9.3034859 37.953701 6.7580905 0.85331237
-9.1169872 37.39706 6.6558714 0.85534173
-9.2565231 38.178928 6.7918506 0.85259444
-9.2328711 38.292358 6.808845 0.85223281
-9.2090816 38.406448 6.8259301 0.85186905
-8.7969627 36.893162 6.5539112 0.85730785
-8.9266109 37.64753 6.6847863 0.85465419
-8.7689209 37.191711 6.6007457 0.85632128
-9.1126223 38.869083 6.8952026 0.85039335
-9.0881643 38.986366 6.912756 0.85001916
-9.0635891 39.104225 6.930388 0.84964305
-9.038867 39.222767 6.9481201 0.84926468
-9.0140133 39.341942 6.9659448 0.84888428
-6.1530662 38.566139 6.655344 0.85345054
-6.0985055 38.537853 6.6471472 0.85357803
-6.0440769 38.509628 6.6389561 0.85370511
-5.8485155 38.210781 6.5775595 0.85483605
-5.8096189 38.280884 6.5863266 0.85461718
-5.7706056 38.351196 6.5951123 0.85439754
-5.9088573 39.610867 6.8083138 0.85002035
-5.6642137 38.3032 6.5802364 0.85461891
-5.7367477 39.136509 6.7200108 0.85172975
-5.6522851 38.903671 6.6766586 0.8525697
-5.5688915 38.673782 6.6338596 0.85339963
-5.4864259 38.44648 6.5915341 0.85422081
-5.4049902 38.222008 6.5497375 0.85503238
-5.2349997 37.361332 6.3990135 0.8580777
-5.1848145 37.347668 6.3934274 0.85815018
-5.1347218 37.334026 6.3878503 0.85822231
-5.0846481 37.320393 6.3822694 0.85829425
-5.0346384 37.306778 6.3766956 0.85836583
-4.9846778 37.293182 6.3711267 0.85843718
-4.9347458 37.279598 6.3655601 0.85850823
-4.8848925 37.266022 6.3599949 0.85857904
-4.8350973 37.252476 6.3544335 0.85864955
-4.7853122 37.238934 6.3488755 0.85871977
-4.7356248 37.225418 6.3433237 0.85878974
-4.6859522 37.211906 6.3377709 0.85885942
-4.6363478 37.198414 6.3322215 0.85892886
-4.5867677 37.184944 6.3266697 0.858998
-4.5372462 37.171474 6.3211288 0.8590669
-4.487793 37.158031 6.3155932 0.85913545
-4.4383593 37.1446 6.3100524 0.85920382
-4.3889794 37.131172 6.304513 0.85927194
-4.3396287 37.117771 6.2989807 0.85933971
-4.290381 37.104385 6.2934484 0.85940725
-4.2411423 37.091011 6.2879257 0.85947448
-4.1919727 37.077656 6.2823973 0.85954148
-4.1428175 37.064301 6.2768798 0.85960823
-4.0937257 37.050972 6.2713571 0.85967469
-4.0446777 37.037651 6.2658458 0.85974091
-3.9956737 37.024349 6.2603269 0.85980684
-3.9467187 37.011063 6.254818 0.85987252
-3.6086621 34.253277 5.7857347 0.86961764
-3.5664258 34.269978 5.7855296 0.86957586
-3.5241699 34.286697 5.7853198 0.86953384
-3.4818749 34.303425 5.7851086 0.86949164
-3.4395506 34.320164 5.7848935 0.8694492
-3.3972168 34.336914 5.7846766 0.86940658
-3.3548045 34.353691 5.7844591 0.86936367
-3.3123729 34.37048 5.7842383 0.86932051
-3.269912 34.387272 5.7840137 0.86927718
-3.2274218 34.404083 5.7837925 0.86923361
-3.1848729 34.420918 5.7835593 0.86918986
-3.1423242 34.437759 5.7833252 0.86914581
-3.0997264 34.454613 5.783093 0.86910158
-3.0570996 34.471485 5.7828574 0.86905706
-3.0144384 34.488369 5.7826157 0.86901242
-2.971709 34.505276 5.7823777 0.86896741
-2.9289649 34.52219 5.7821274 0.86892229
-2.8861864 34.539124 5.7818823 0.86887687
-2.8433788 34.556065 5.7816367 0.86883128
-2.8005078 34.573032 5.781384 0.86878538
-2.7576365 34.590008 5.7811255 0.86873931
-2.7147119 34.606995 5.7808676 0.86869305
-2.6717577 34.624004 5.7806091 0.86864644
-2.6287498 34.641026 5.7803488 0.86859971
-2.5857129 34.658066 5.7800817 0.86855268
-2.5426366 34.675125 5.7798133 0.86850542
-2.499541 34.692192 5.7795444 0.86845797
-2.4563866 34.709274 5.7792711 0.86841023
-2.413208 34.726376 5.7790003 0.86836231
-2.3699706 34.743492 5.778717 0.86831409
-2.3267188 34.760628 5.7784386 0.86826569
-2.2834032 34.777782 5.7781529 0.86821705
-2.240078 34.794937 5.7778687 0.86816818
-2.1966894 34.812126 5.7775817 0.868119
-2.1532714 34.829319 5.7772899 0.86806971
-2.1098144 34.846531 5.7769995 0.86802006
-2.0662987 34.86377 5.7767029 0.86797023
-2.022754 34.881023 5.776401 0.8679201
-1.9791894 34.898281 5.7761011 0.86786979
-1.9355663 34.915562 5.7757969 0.86781925
-1.8918945 34.932858 5.7754917 0.86776847
-1.8481835 34.950176 5.7751865 0.86771744
-1.8044531 34.967506 5.7748718 0.86766613
-1.760664 34.984863 5.7745605 0.86761457
-1.7168505 35.00222 5.7742395 0.86756289
-1.6729687 35.019608 5.7739244 0.86751086
-1.6055664 34.531712 5.6903305 0.86923921
-1.5606641 34.513767 5.684237 0.86931121
-1.5157812 34.49585 5.6781321 0.86938298
-1.4709814 34.47794 5.6720386 0.86945444
-1.4262207 34.460056 5.6659532 0.86952561
-1.3815038 34.4422 5.6598692 0.86959654
-1.3368213 34.424355 5.6537914 0.86966723
-1.2922021 34.406536 5.6477122 0.86973763
-1.2476513 34.388744 5.641644 0.86980772
-1.2030957 34.370956 5.6355748 0.86987764
-1.1586035 34.353191 5.6295128 0.86994725
-1.11417 34.335449 5.6234508 0.87001663
-1.0697851 34.31773 5.6173987 0.87008572
-1.02542 34.300041 5.6113501 0.87015444
-0.98110348 34.282349 5.6052999 0.8702231
-0.93685544 34.264687 5.5992575 0.87029135
-0.89264649 34.247051 5.5932188 0.87035936
-0.84846675 34.229416 5.5871849 0.87042719
-0.80433589 34.211815 5.5811572 0.87049472
-0.76026851 34.194229 5.5751343 0.87056196
-0.71621579 34.176659 5.5691051 0.87062901
-0.67222655 34.159115 5.5630918 0.87069571
-0.62827635 34.141567 5.5570798 0.87076229
-0.58437985 34.124069 5.5510693 0.87082845
-0.54049802 34.10656 5.5450644 0.87089449
-0.49668944 34.089096 5.5390625 0.87096018
-0.4528906 34.071636 5.5330639 0.87102568
-0.40915039 34.054195 5.52707 0.87109089
1.3475878 36.777645 5.837379 0.86152637
1.3947852 36.775913 5.8335853 0.86152834
1.4419482 36.77417 5.8297911 0.86153013
1.4891211 36.772427 5.8259888 0.86153173
1.752461 35.403912 5.5853491 0.86628753
1.7974414 35.391914 5.5800414 0.86632371
1.8423926 35.37991 5.5747352 0.86635971
1.8873242 35.367916 5.5694346 0.86639547
1.9322314 35.355946 5.564126 0.86643094
1.9771093 35.343967 5.5588207 0.86646628
2.0219872 35.331997 5.5535192 0.86650139
2.0668409 35.32003 5.5482163 0.86653626
2.1116893 35.308071 5.5429125 0.86657089
2.1565039 35.296112 5.537612 0.86660534
2.2013135 35.284168 5.5323105 0.86663955
2.246084 35.272217 5.5270143 0.86667359
2.2908592 35.260288 5.5217099 0.86670738
2.3355858 35.248363 5.5164099 0.86674094
2.380332 35.236431 5.5111146 0.86677432
2.4250243 35.224514 5.5058126 0.86680746
2.4697313 35.212601 5.5005126 0.86684042
2.5144434 35.200687 5.4952197 0.86687315
2.5590868 35.188793 5.4899144 0.86690563
2.6037304 35.176888 5.4846201 0.86693794
2.6483691 35.165001 5.4793224 0.86697
2.6929882 35.153114 5.4740272 0.86700183
2.7375782 35.141239 5.4687304 0.86703342
2.7821581 35.129356 5.4634314 0.86706489
2.8267283 35.117485 5.4581394 0.86709613
2.8712938 35.105614 5.4528441 0.86712712
2.9158299 35.093758 5.4475474 0.86715794
2.9603417 35.081913 5.4422522 0.86718845
3.0048633 35.070057 5.4369569 0.86721879
3.0493505 35.058224 5.4316611 0.86724889
3.0938427 35.046375 5.4263697 0.86727887
3.1383007 35.03455 5.421073 0.86730856
3.1827734 35.022709 5.4157748 0.86733806
3.2271972 35.010887 5.4104857 0.86736739
3.2716112 34.999058 5.4051962 0.86739647
3.3160155 34.987244 5.3999009 0.86742532
3.3604295 34.975426 5.3946056 0.86745399
3.4048047 34.963619 5.3893151 0.86748242
3.3717675 34.167427 5.2631946 0.87028211
3.4233007 34.237484 5.2705774 0.87002081
3.4750438 34.307869 5.2780027 0.86975825
3.527041 34.378574 5.2854505 0.86949432
3.579253 34.449558 5.2929306 0.86922926
3.6317089 34.520889 5.3004465 0.86896276
3.6844041 34.592537 5.307992 0.86869496
3.7373388 34.66452 5.3155699 0.86842579
3.7905176 34.73682 5.3231797 0.8681553
3.8439355 34.809456 5.3308239 0.86788344
3.8976171 34.882446 5.3385096 0.86761022
3.9515526 34.955765 5.3462195 0.86733556
4.0057077 35.029392 5.3539634 0.86705965
4.0601368 35.103397 5.361753 0.86678225
4.1148143 35.177753 5.3695726 0.86650336
4.1697116 35.252377 5.3774109 0.86622339
4.2249022 35.327419 5.3853002 0.8659417
4.0949607 33.869476 5.1596375 0.87108445
4.09021 33.466953 5.0949445 0.87249792
4.132988 33.457539 5.0901303 0.87251467
4.3604298 34.927406 5.3102198 0.86728519
4.2014842 33.303631 5.0599799 0.87302828
4.2431641 33.287178 5.0541086 0.87306958
4.2848096 33.270737 5.0482383 0.87311065
4.3264599 33.254299 5.0423732 0.87315154
4.3680711 33.237885 5.0365052 0.87319219
4.4096632 33.221458 5.0306449 0.87323266
4.4512401 33.205051 5.0247831 0.8732729
4.4927831 33.188656 5.0189228 0.87331289
4.5343261 33.17226 5.0130677 0.87335271
4.5758395 33.155884 5.0072088 0.87339222
4.6173434 33.139511 5.0013566 0.87343162
4.6587987 33.123154 4.9955025 0.87347078
4.700254 33.1068 4.9896498 0.87350971
4.7417088 33.090443 4.9837995 0.87354845
4.7831006 33.074116 4.977952 0.87358695
4.8244967 33.057777 4.9721055 0.87362528
4.8658838 33.041458 4.9662638 0.87366331
4.9072266 33.02515 4.960422 0.87370116
4.9485645 33.008846 4.9545841 0.87373883
4.9898825 32.99255 4.9487405 0.87377626
5.0311961 32.976265 4.942903 0.87381345
5.0724411 32.959995 4.9370685 0.87385046
5.1137109 32.943714 4.931232 0.8738873
5.1549706 32.927444 4.9253993 0.8739239
5.1961813 32.91119 4.9195681 0.87396026
5.2374024 32.894939 4.9137354 0.87399638
5.2785788 32.878716 4.9079065 0.87403232
5.3197556 32.86248 4.9020767 0.87406802
5.3609276 32.84626 4.8962545 0.87410355
5.402041 32.830044 4.89043 0.87413889
5.4431739 32.813831 4.8846087 0.87417394
5.4842772 32.797626 4.8787885 0.87420887
5.5253663 32.781441 4.8729658 0.8742435
5.5664454 32.765244 4.8671446 0.87427801
5.6074901 32.749077 4.8613276 0.87431222
5.6485353 32.732906 4.8555117 0.87434626
5.6895456 32.716732 4.8496981 0.87438011
5.7305565 32.700577 4.8438821 0.87441373
5.7715526 32.684418 4.8380723 0.87444717
5.8125196 32.668282 4.8322573 0.87448031
5.8534861 32.652138 4.8264461 0.87451333
5.8944139 32.636005 4.8206372 0.87454611
5.9353514 32.619873 4.8148332 0.87457871
6.1347556 6.876152 0.6346606 0.96372682
6.1236668 6.8442822 0.63045621 0.96384776
6.1291161 6.8309617 0.62792385 0.96387255
6.1345358 6.8176413 0.62538022 0.96389741
6.1410985 6.8055906 0.62299192 0.96391559
6.1537304 6.8002877 0.62120998 0.9638986
6.1663914 6.7949657 0.61942625 0.96388155
6.1790576 6.7896481 0.61764157 0.96386439
6.2063866 6.8003612 0.61730957 0.96376318
51.463005 54.967274 4.8935928 0.73946464
51.511826 54.863548 4.8735666 0.73959327
51.660137 54.865669 4.8629379 0.73929089
51.765293 54.821621 4.8481803 0.73917538
51.79908 54.702015 4.8267612 0.73936737
51.525135 54.258617 4.7768736 0.7408843
51.553299 54.134472 4.7551432 0.74109709
51.646999 54.079182 4.7394838 0.74102706
51.740768 54.023849 4.7238283 0.7409566
51.834648 53.968472 4.7081537 0.7408855
51.928574 53.913044 4.6924663 0.74081403
52.01244 53.847088 4.6758609 0.7407853
52.04163 53.724541 4.6543555 0.74098974
52.203808 53.739151 4.6447072 0.74062657
52.288864 53.67408 4.6281734 0.74059212
52.531288 53.769924 4.6254835 0.73988956
52.642559 53.73098 4.6111441 0.73974454
52.754044 53.691986 4.5967951 0.73959875
55.148182 55.969437 4.7802916 0.72987807
54.544392 55.199532 4.7031479 0.73273015
54.693787 55.193596 4.6912222 0.73243725
54.882187 55.226482 4.6825972 0.73198253
55.052029 55.240017 4.6722736 0.73160625
55.079872 55.110943 4.6498866 0.73181963
53.827774 53.705063 4.5200624 0.73735493
53.882412 53.606819 4.500577 0.73744851
53.937031 53.508606 4.4810958 0.73754168
53.991619 53.410435 4.4616327 0.7376343
54.046188 53.312309 4.4421835 0.73772645
54.100723 53.214268 4.4227619 0.737818
54.155243 53.116272 4.4033298 0.73790908
54.08453 52.895954 4.3738327 0.73851746
54.264141 52.920471 4.3645606 0.73808968
54.318516 52.822651 4.345181 0.73817933
54.367657 52.719799 4.3254142 0.73828995
54.415703 52.615936 4.3055725 0.73840457
54.463669 52.512215 4.2857504 0.7385186
54.51162 52.408569 4.2659574 0.73863202
54.004803 51.773163 4.2030001 0.74102288
54.158749 51.772541 4.1916862 0.74069703
54.254734 51.716206 4.1758432 0.74060935
54.468105 51.771286 4.1689711 0.74004126
54.399597 51.558514 4.1405182 0.74062592
54.779373 51.770027 4.1460977 0.73938006
54.87336 51.71056 4.1299415 0.73930132
54.891308 51.579506 4.1080503 0.73953152
54.909199 51.448616 4.0862098 0.73976105
54.927048 51.317986 4.064424 0.73998982
55.980564 52.152504 4.118855 0.73603231
55.957302 51.981434 4.0937166 0.73642904
55.924255 51.801846 4.067946 0.73686373
55.88121 51.613491 4.0415316 0.73733747
56.426044 51.967186 4.0574727 0.73545158
56.53788 51.920689 4.0420938 0.73530465
52.599392 41.989559 2.775598 0.7638036
52.604511 41.869022 2.7565269 0.76402318
52.210712 41.432041 2.7167423 0.76580179
52.275654 41.360233 2.7009859 0.76578444
52.340664 41.288399 2.6852269 0.76576656
52.405712 41.216534 2.6694782 0.7657482
52.470791 41.144657 2.653718 0.76572937
52.535896 41.072716 2.6379516 0.76571012
52.601074 41.000782 2.6221972 0.76569027
52.645264 40.912498 2.6053865 0.76575148
52.650311 40.793934 2.5866618 0.76596403
52.655369 40.675606 2.5679891 0.76617569
52.660381 40.557461 2.5493548 0.76638675
52.927334 40.640652 2.5433331 0.76558429
52.992702 40.568535 2.5275528 0.76556164
53.963924 41.187763 2.5546505 0.76205462
54.035175 41.117901 2.5388269 0.76201284
54.106445 41.048027 2.5229757 0.76197052
53.23613 40.265858 2.4635549 0.76553702
53.237244 40.144989 2.4447939 0.76575941
54.320602 40.838085 2.4754109 0.7618407
54.39209 40.767986 2.4595413 0.76179647
54.463604 40.697849 2.4436738 0.76175183
52.861729 39.380955 2.3532834 0.76809549
52.893162 39.284706 2.3362081 0.76819634
52.924549 39.188484 2.3191476 0.76829678
52.955936 39.092304 2.3021078 0.76839674
52.986092 38.995323 2.2850213 0.76850075
53.008904 38.893066 2.2676516 0.76863217
53.031651 38.790897 2.250293 0.76876312
53.054424 38.688847 2.2329688 0.76889342
52.887051 38.448681 2.2077193 0.76974702
52.084053 37.748779 2.1563141 0.7730242
53.000008 38.294773 2.1760714 0.76974672
53.109062 38.255623 2.1623907 0.76954651
53.218369 38.216404 2.1486783 0.76934534
53.3279 38.177097 2.1349442 0.7691434
53.437725 38.137714 2.1211801 0.76894045
53.547714 38.098221 2.1073906 0.76873696
52.301453 37.096386 2.0406356 0.77366495
52.389374 37.043701 2.0263729 0.77353859
52.477402 36.990948 2.0120928 0.77341169
52.565586 36.938095 1.9978006 0.77328414
52.653885 36.885147 1.9834847 0.77315611
52.804287 36.87537 1.9714648 0.77279365
54.33625 37.826954 2.0104892 0.76724565
53.110859 36.858517 1.947439 0.77204865
53.500076 37.012634 1.9438919 0.77079147
53.576698 36.949677 1.9288757 0.77070886
53.578751 36.835331 1.9111792 0.77090508
53.580769 36.72113 1.8935275 0.77110082
53.58279 36.607178 1.8759066 0.77129567
53.584824 36.493435 1.8583087 0.77148974
53.066189 36.026306 1.8228521 0.77362901
53.588867 36.266415 1.8232391 0.77187592
53.590866 36.153172 1.8057443 0.77206802
53.789978 36.172733 1.794873 0.77152556
53.819317 36.077793 1.7782828 0.77161515
55.117538 36.83083 1.8032317 0.76700592
55.11282 36.710693 1.785166 0.76722395
55.108143 36.590759 1.7671341 0.76744115
61.361816 40.613243 1.9477991 0.7449472
59.21447 39.066902 1.8605102 0.75287193
62.251755 40.93951 1.9358532 0.74220526
61.56572 40.358719 1.8946985 0.74486119
61.905361 40.451298 1.8852453 0.74386513
62.191345 40.507675 1.8740172 0.74306232
62.422665 40.527657 1.8610244 0.74245501
60.567207 39.196339 1.7863592 0.74926394
60.640564 39.117226 1.7691848 0.74920923
60.108212 38.648575 1.7345349 0.75131583
60.109734 38.524502 1.7154825 0.75151473
60.184208 38.447216 1.6985198 0.75145262
60.258747 38.369854 1.6815658 0.75138998
59.869541 37.998085 1.6517966 0.75297999
59.92371 37.908585 1.6343908 0.75298768
59.589355 37.574112 1.6065234 0.75437993
59.689236 37.514141 1.5904702 0.75422239
59.789314 37.454052 1.5743978 0.75406414
59.537498 37.174011 1.5491564 0.75515825
59.944023 37.304951 1.5409982 0.75390881
59.91082 37.16164 1.5214627 0.75422317
59.877666 37.018711 1.501987 0.75453651
59.844627 36.87619 1.4825717 0.75484854
59.811657 36.734024 1.4632064 0.7551595
60.127048 36.805428 1.4523284 0.75423598
60.39909 36.849346 1.4402364 0.75346792
60.33873 36.690117 1.4201883 0.75387412
60.662712 36.764305 1.4091388 0.75292438
55.05912 33.256962 1.2620574 0.7731021
60.815311 36.611111 1.3753442 0.75277156
60.891708 36.534386 1.358421 0.75269443
60.968163 36.457626 1.3415045 0.7526167
62.616306 37.317322 1.3586524 0.74705046
62.611279 37.188789 1.3394842 0.74726081
62.606277 37.060421 1.3203497 0.74747044
62.601307 36.932274 1.30125 0.74767917
54.386951 28.067627 0.52351713 0.78284657
54.34491 25.712637 0.17327896 0.78624707
54.397655 25.637508 0.15848434 0.78619814
54.45039 25.562382 0.14369033 0.78614873
54.505329 25.488144 0.12888549 0.78609145
62.026424 25.759356 -0.33666426 0.76440769
61.92078 25.605537 -0.35239899 0.76488608
62.047897 25.548056 -0.36946091 0.76459342
49.974052 19.607491 -0.44116667 0.80675191
50.045097 19.547617 -0.45477736 0.8066085
49.985126 19.43667 -0.46716902 0.8069185
49.984951 19.349169 -0.48010832 0.80702078
49.984776 19.261738 -0.49302518 0.80712265
49.984619 19.174355 -0.50593263 0.80722398
49.984444 19.08709 -0.51881939 0.80732483
49.984295 18.999941 -0.53168774 0.80742508
49.984119 18.912823 -0.54454297 0.80752492
49.983944 18.825819 -0.55738646 0.80762428
49.983788 18.738867 -0.57020199 0.8077231
49.983624 18.651991 -0.58301449 0.80782151
49.983475 18.565224 -0.5958215 0.80791932
49.983299 18.478544 -0.60860443 0.80801672
49.983124 18.391893 -0.62137526 0.80811369
49.982979 18.305361 -0.63412899 0.80821007
49.982803 18.218866 -0.64686215 0.80830604
49.982655 18.1325 -0.65960735 0.80840141
49.982491 18.046152 -0.67231566 0.80849642
49.982323 17.959892 -0.68500304 0.80859095
49.982159 17.87377 -0.69769913 0.80868489
49.981991 17.787645 -0.71037865 0.80877846
49.981834 17.701651 -0.72302115 0.80887145
49.981689 17.615713 -0.7356686 0.80896395
49.981522 17.529844 -0.74830878 0.80905604
49.981358 17.444052 -0.76092017 0.80914766
49.981209 17.358311 -0.77352047 0.80923873
49.981026 17.272686 -0.78610897 0.80932945
49.980877 17.18709 -0.79868209 0.80941957
49.980701 17.101572 -0.81124812 0.80950934
49.980556 17.016113 -0.82380301 0.80959857
49.980389 16.93078 -0.83633596 0.80968726
49.980232 16.845469 -0.84886885 0.80977553
49.980057 16.760235 -0.86137861 0.80986339
49.9799 16.67503 -0.87387711 0.80995077
49.979744 16.589941 -0.88636494 0.81003761
49.979599 16.504942 -0.89885592 0.81012392
49.979412 16.41996 -0.91131991 0.81020993
49.979267 16.335068 -0.92375863 0.81029534
49.979099 16.250225 -0.93619335 0.8103804
49.978954 16.165497 -0.94863051 0.8104648
49.978779 16.08077 -0.96104091 0.81054896
49.978622 15.996133 -0.9734416 0.81063253
49.978466 15.911592 -0.98582435 0.81071562
49.97831 15.827099 -0.99821067 0.81079823
49.978134 15.742626 -1.0105697 0.81088054
49.977978 15.658271 -1.0229279 0.8109622
49.977821 15.573955 -1.0352716 0.81104344
49.977654 15.489687 -1.0475975 0.81112432
49.977497 15.405488 -1.0599173 0.81120467
49.977352 15.321377 -1.0722305 0.81128448
49.977196 15.237294 -1.0845221 0.81136388
49.977051 15.15331 -1.0968148 0.81144279
49.976894 15.069336 -1.1090887 0.81152129
49.976727 14.985419 -1.1213535 0.81159937
49.976562 14.901621 -1.1336025 0.81167698
49.976406 14.817832 -1.145847 0.81175411
49.976257 14.734111 -1.1580728 0.81183076
49.976101 14.650449 -1.1702974 0.81190693
49.975945 14.566845 -1.1825078 0.81198269
49.97578 14.48332 -1.1947036 0.81205803
49.975613 14.399795 -1.2068849 0.81213295
49.975456 14.316377 -1.2190707 0.81220734
49.975311 14.233007 -1.2312354 0.81228119
49.975155 14.149687 -1.2433946 0.81235468
49.974991 14.066386 -1.2555382 0.81242776
49.974834 13.983164 -1.267678 0.81250036
49.974678 13.900009 -1.2797915 0.81257248
49.974529 13.816904 -1.291918 0.81264412
49.974373 13.733857 -1.3040253 0.81271535
49.974216 13.650859 -1.3161215 0.8127861
49.97406 13.56789 -1.3281991 0.8128565
49.973896 13.485009 -1.3402816 0.81292635
49.973728 13.402109 -1.3523499 0.81299585
49.973583 13.319355 -1.3644047 0.81306481
49.973438 13.236562 -1.376458 0.81313336
49.973259 13.153876 -1.3884909 0.81320149
49.973125 13.07123 -1.4005281 0.81326908
37.861355 9.8406734 -1.0701954 0.85510087
37.861561 9.778203 -1.0793086 0.8551529
37.861755 9.7157717 -1.0884097 0.85520464
37.861973 9.6533985 -1.0974993 0.8552559
38.040077 9.6361036 -1.1117853 0.85467899
38.292419 9.6369333 -1.1283426 0.85384101
38.54792 9.637763 -1.1451266 0.85299301
38.806728 9.6386127 -1.162082 0.85213459
39.068993 9.639472 -1.1792997 0.85126525
39.33448 9.6403418 -1.1966906 0.85038579
39.603592 9.6412306 -1.2143449 0.84949487
39.876114 9.6421089 -1.2322222 0.84859335
40.152481 9.6430073 -1.250325 0.84767973
28.039169 6.6879001 -0.87981755 0.89104831
27.956142 6.6222458 -0.88386893 0.89138979
27.940586 6.572793 -0.89002717 0.89148355
27.925049 6.5233884 -0.89617568 0.89157701
27.770273 6.4417868 -0.89780545 0.89218026
27.810635 6.4056249 -0.90571898 0.89206821
27.866737 6.3729687 -0.91416049 0.89189827
27.867422 6.3275876 -0.92080343 0.89193112
28.079872 6.3299413 -0.93448514 0.8911891
28.208397 6.3128514 -0.9454363 0.89075446
29.693817 6.5967965 -1.0022447 0.8853811
29.678974 6.5450778 -1.0087696 0.88547122
29.687138 6.4984469 -1.0160671 0.88547754
29.695312 6.4518261 -1.0233673 0.88548356
29.641542 6.3918552 -1.0285164 0.88571393
29.676386 6.3510351 -1.036726 0.88562268
29.708759 6.3095994 -1.0448641 0.88554019
29.72208 6.2640719 -1.0523403 0.88552648
29.773642 6.2265234 -1.0611855 0.88537407
29.806181 6.1848731 -1.0693618 0.88529038
29.846123 6.1446676 -1.0778196 0.88517976
29.9233 6.1119332 -1.0876428 0.88493425
30.00082 6.0790625 -1.097515 0.88468754
30.078711 6.0460348 -1.1074297 0.88443941
32.204082 6.4210057 -1.1932329 0.87683314
32.13588 6.3552928 -1.1982572 0.87711185
32.201473 6.3160644 -1.2082546 0.87691152
33.426144 6.5021286 -1.2620356 0.87257713
33.496033 6.4614649 -1.2725317 0.87236345
33.519714 6.4117479 -1.2812753 0.87231392
33.54879 6.3630075 -1.2902392 0.87224495
33.577862 6.314199 -1.2992177 0.87217575
33.607002 6.2653122 -1.3081967 0.87210608
33.492695 6.1898727 -1.3115708 0.87254548
33.576492 6.1510935 -1.3226944 0.87228107
33.660683 6.1121192 -1.3338717 0.87201524
33.737343 6.0715528 -1.3447788 0.87177598
33.817139 6.0313182 -1.3558462 0.87152553
33.899227 5.99125 -1.3670428 0.8712669
33.981659 5.9509864 -1.3782828 0.87100697
36.699978 6.3678317 -1.4970733 0.86147124
36.668926 6.3033104 -1.5043503 0.86161339
36.773964 6.2620993 -1.5172141 0.86127907
37.948124 6.4008689 -1.5744848 0.85721594
38.22821 6.3865528 -1.5949972 0.85627532
38.537292 6.3761425 -1.6168499 0.85523528
38.723572 6.3446093 -1.6336564 0.85462242
39.128963 6.3480954 -1.6598458 0.85325128
39.159969 6.2901073 -1.6702468 0.85317695
40.33617 6.4141407 -1.7297649 0.84915096
40.472107 6.3706641 -1.7449828 0.84871626
40.388271 6.2925391 -1.7507275 0.84903741
40.542549 6.2514157 -1.7668082 0.84853929
40.971661 6.2517576 -1.7949972 0.84709793
41.395439 6.2499218 -1.8231465 0.84567761
41.827831 6.2480469 -1.8518745 0.84423047
42.066406 6.2161326 -1.8721664 0.84344751
41.849354 6.1168942 -1.8721806 0.84422028
41.634521 6.0186524 -1.8721946 0.84498554
41.42197 5.9214845 -1.8722084 0.84574294
41.653076 5.8877244 -1.8922738 0.84498304
42.066063 5.8786426 -1.9207511 0.84360325
42.536736 5.8762302 -1.9520577 0.84202951
42.829678 5.8480272 -1.9753838 0.84106296
42.616749 5.7506638 -1.9753976 0.84181637
42.406113 5.6542969 -1.9754113 0.84256202
42.197636 5.5589061 -1.9754249 0.84330034
41.991081 5.4644337 -1.9754384 0.84403205
41.786835 5.3709474 -1.9754516 0.84475595
41.58453 5.2783985 -1.9754647 0.84547317
41.384277 5.1867285 -1.9754778 0.84618336
41.186005 5.0959473 -1.9754907 0.84688681
40.989464 5.0060449 -1.9755034 0.84758425
40.795128 4.9170313 -1.9755162 0.84827417
40.602451 4.828867 -1.9755287 0.84895831
40.411854 4.7415624 -1.9755412 0.84963536
40.222919 4.6550879 -1.9755534 0.85030663
40.035809 4.5694337 -1.9755656 0.85097158
39.850586 4.48458 -1.9755777 0.85163003
39.667019 4.4005275 -1.9755898 0.85228276
39.485126 4.3172364 -1.9756014 0.85292965
39.305107 4.2347364 -1.9756132 0.85357004
39.12661 4.1529784 -1.9756248 0.85420519
38.949951 4.0720215 -1.9756364 0.85483384
38.774754 3.9917772 -1.9756477 0.85545748
38.601162 3.912246 -1.975659 0.85607547
38.429188 3.8334374 -1.9756702 0.85668784
38.258751 3.7553418 -1.9756813 0.8572948
38.08987 3.6779296 -1.9756924 0.85789633
37.922546 3.6012499 -1.9757032 0.85849243
37.756687 3.5252244 -1.9757141 0.85908335
37.592236 3.4498827 -1.9757247 0.85966933
37.429337 3.3751855 -1.9757353 0.86024982
37.267792 3.3011327 -1.9757458 0.8608256
37.107754 3.2277246 -1.9757563 0.86139601
36.949024 3.1549706 -1.9757665 0.86196184
